-0.0696667 -0.0872667 0.77
-0.0698476 -0.0860229 0.772
-0.0698476 -0.0845524 0.772
-0.0699381 -0.0831895 0.773
-0.0699381 -0.0817171 0.773
-0.0701191 -0.0804524 0.775
-0.0703 -0.07918 0.777
-0.070481 -0.0779 0.779
-0.070481 -0.0764162 0.779
-0.0705714 -0.0750286 0.78
-0.0705714 -0.0735429 0.78
-0.0707524 -0.0722419 0.782
-0.0709333 -0.0709333 0.784
-0.0709333 -0.06944 0.784
-0.0711143 -0.06812 0.786
-0.0711143 -0.0666229 0.786
-0.0711143 -0.0651257 0.786
-0.0712952 -0.0637905 0.788
-0.0712952 -0.0622895 0.788
-0.0713857 -0.0608657 0.789
-0.0713857 -0.0593629 0.789
-0.0717476 -0.0581533 0.793
-0.0717476 -0.0566429 0.793
-0.0719286 -0.0552714 0.795
-0.0719286 -0.0537571 0.795
-0.0719286 -0.0522429 0.795
-0.0721095 -0.0508562 0.797
-0.0721095 -0.0493381 0.797
-0.0722 -0.04788 0.798
-0.072381 -0.0464762 0.8
-0.072381 -0.0449524 0.8
-0.0725619 -0.0435372 0.802
-0.0725619 -0.0420095 0.802
-0.0727429 -0.0405829 0.804
-0.0727429 -0.0390514 0.804
-0.0729238 -0.0376133 0.806
-0.0732857 -0.0362571 0.81
-0.0734667 -0.0348 0.812
-0.0734667 -0.0332533 0.812
-0.0734667 -0.0317067 0.812
-0.0736476 -0.0302343 0.814
-0.0736476 -0.0286838 0.814
-0.0737381 -0.0271667 0.815
-0.0737381 -0.0256143 0.815
-0.0739191 -0.0241209 0.817
-0.0739191 -0.0225648 0.817
-0.0741 -0.02106 0.819
-0.0742809 -0.0195476 0.821
-0.0744619 -0.0180276 0.823
-0.0744619 -0.01646 0.823
-0.0746429 -0.0149286 0.825
-0.0654543 -0.242814 0.739
-0.0654543 -0.241407 0.739
-0.0654543 -0.239999 0.739
-0.0654543 -0.238591 0.739
-0.0654543 -0.237184 0.739
-0.0654543 -0.235776 0.739
-0.0655428 -0.234686 0.74
-0.06572 -0.233907 0.742
-0.06572 -0.232493 0.742
-0.0658086 -0.231391 0.743
-0.0658086 -0.229976 0.743
-0.0658086 -0.228561 0.743
-0.0658086 -0.227146 0.743
-0.0658086 -0.22573 0.743
-0.0658086 -0.224315 0.743
-0.06572 -0.2226 0.742
-0.0655428 -0.220591 0.74
-0.0654543 -0.218885 0.739
-0.0654543 -0.217477 0.739
-0.0652772 -0.215485 0.737
-0.0651886 -0.213791 0.736
-0.0650114 -0.211811 0.734
-0.0648343 -0.20984 0.732
-0.0648343 -0.208446 0.732
-0.0647457 -0.206769 0.731
-0.0647457 -0.205376 0.731
-0.0647457 -0.203984 0.731
-0.06448 -0.20176 0.728
-0.0643028 -0.199823 0.726
-0.0642143 -0.198167 0.725
-0.0642143 -0.196786 0.725
-0.0642143 -0.195405 0.725
-0.0640372 -0.193489 0.723
-0.0639486 -0.191846 0.722
-0.0637714 -0.189943 0.72
-0.0637714 -0.188571 0.72
-0.0636829 -0.18694 0.719
-0.0636829 -0.18557 0.719
-0.0636829 -0.184201 0.719
-0.0636829 -0.182831 0.719
-0.0635057 -0.180957 0.717
-0.0635057 -0.179591 0.717
-0.0634171 -0.177977 0.716
-0.0634171 -0.176613 0.716
-0.0634171 -0.17525 0.716
-0.0634171 -0.173886 0.716
-0.0634171 -0.172522 0.716
-0.0634171 -0.171158 0.716
-0.0635057 -0.170031 0.717
-0.0635057 -0.168666 0.717
-0.0635057 -0.1673 0.717
-0.0635057 -0.165934 0.717
-0.0635057 -0.164569 0.717
-0.0636829 -0.163658 0.719
-0.0636829 -0.162289 0.719
-0.0637714 -0.161143 0.72
-0.0637714 -0.159771 0.72
-0.0637714 -0.1584 0.72
-0.0637714 -0.157029 0.72
-0.0639486 -0.156089 0.722
-0.0639486 -0.154714 0.722
-0.0639486 -0.153339 0.722
-0.0640372 -0.152174 0.723
-0.0640372 -0.150797 0.723
-0.0643028 -0.15004 0.726
-0.06448 -0.149067 0.728
-0.06448 -0.14768 0.728
-0.0645686 -0.146494 0.729
-0.0645686 -0.145106 0.729
-0.0647457 -0.144111 0.731
-0.0647457 -0.142719 0.731
-0.0647457 -0.141327 0.731
-0.0647457 -0.139934 0.731
-0.0648343 -0.138731 0.732
-0.0648343 -0.137337 0.732
-0.0650114 -0.136314 0.734
-0.0650114 -0.134916 0.734
-0.0650114 -0.133518 0.734
-0.0651886 -0.13248 0.736
-0.0652772 -0.131256 0.737
-0.0652772 -0.129852 0.737
-0.0652772 -0.128449 0.737
-0.0654543 -0.12739 0.739
-0.0654543 -0.125982 0.739
-0.0655428 -0.124743 0.74
-0.06572 -0.123667 0.742
-0.06572 -0.122253 0.742
-0.0658086 -0.121003 0.743
-0.0659857 -0.11991 0.745
-0.0659857 -0.118491 0.745
-0.0661628 -0.117386 0.747
-0.0662514 -0.116118 0.748
-0.0662514 -0.114693 0.748
-0.0666057 -0.113874 0.752
-0.0666057 -0.112442 0.752
-0.0666057 -0.11101 0.752
-0.0666943 -0.109723 0.753
-0.0666943 -0.108289 0.753
-0.0668714 -0.107138 0.755
-0.0668714 -0.1057 0.755
-0.06696 -0.1044 0.756
-0.0671371 -0.103232 0.758
-0.0671371 -0.101789 0.758
-0.0673143 -0.10061 0.76
-0.0673143 -0.0991619 0.76
-0.0674029 -0.0978429 0.761
-0.06758 -0.0966467 0.763
-0.06758 -0.0951933 0.763
-0.0677571 -0.0939857 0.765
-0.0677571 -0.0925286 0.765
-0.0677571 -0.0910714 0.765
-0.0679343 -0.0898486 0.767
-0.0679343 -0.0883876 0.767
-0.0682 -0.0872667 0.77
-0.0683771 -0.0860229 0.772
-0.0683771 -0.0845524 0.772
-0.0684657 -0.0831895 0.773
-0.0684657 -0.0817171 0.773
-0.0686429 -0.0804524 0.775
-0.0686429 -0.0789762 0.775
-0.06882 -0.0777 0.777
-0.0689971 -0.0764162 0.779
-0.0689971 -0.0749324 0.779
-0.0690857 -0.0735429 0.78
-0.0690857 -0.0720571 0.78
-0.0692629 -0.0707524 0.782
-0.0692629 -0.0692629 0.782
-0.06944 -0.0679467 0.784
-0.0696171 -0.0666229 0.786
-0.0696171 -0.0651257 0.786
-0.0697943 -0.0637905 0.788
-0.0697943 -0.0622895 0.788
-0.0697943 -0.0607886 0.788
-0.0698829 -0.0593629 0.789
-0.0702371 -0.0581533 0.793
-0.0702371 -0.0566429 0.793
-0.0702371 -0.0551324 0.793
-0.0702371 -0.0536219 0.793
-0.0704143 -0.0522429 0.795
-0.0704143 -0.0507286 0.795
-0.0705914 -0.0493381 0.797
-0.07068 -0.04788 0.798
-0.0708571 -0.0464762 0.8
-0.0708571 -0.0449524 0.8
-0.0708571 -0.0434286 0.8
-0.0710343 -0.0420095 0.802
-0.0710343 -0.0404819 0.802
-0.0712114 -0.0390514 0.804
-0.0712114 -0.03752 0.804
-0.0713886 -0.0360781 0.806
-0.0715657 -0.0346286 0.808
-0.0715657 -0.0330895 0.808
-0.0717429 -0.0316286 0.81
-0.07192 -0.03016 0.812
-0.07192 -0.0286133 0.812
-0.07192 -0.0270667 0.812
-0.0720972 -0.0255829 0.814
-0.0721857 -0.0240619 0.815
-0.0723629 -0.0225648 0.817
-0.0723629 -0.0210086 0.817
-0.07254 -0.0195 0.819
-0.0727172 -0.0179838 0.821
-0.0727172 -0.01642 0.821
-0.0728943 -0.0148924 0.823
-0.0640467 -0.242814 0.739
-0.0640467 -0.241407 0.739
-0.0640467 -0.239999 0.739
-0.0641333 -0.238914 0.74
-0.0641333 -0.237505 0.74
-0.0641333 -0.236095 0.74
-0.0641333 -0.234686 0.74
-0.0643067 -0.233907 0.742
-0.0643933 -0.232807 0.743
-0.0643933 -0.231391 0.743
-0.0643933 -0.229976 0.743
-0.0643933 -0.228561 0.743
-0.0643933 -0.227146 0.743
-0.0643933 -0.22573 0.743
-0.0643933 -0.224315 0.743
-0.0643067 -0.2226 0.742
-0.0641333 -0.220591 0.74
-0.0640467 -0.218885 0.739
-0.0640467 -0.217477 0.739
-0.0638733 -0.215485 0.737
-0.0638733 -0.214081 0.737
-0.0636133 -0.211811 0.734
-0.06344 -0.20984 0.732
-0.06344 -0.208446 0.732
-0.0633533 -0.206769 0.731
-0.0633533 -0.205376 0.731
-0.0633533 -0.203984 0.731
-0.06318 -0.202037 0.729
-0.06292 -0.199823 0.726
-0.06292 -0.19844 0.726
-0.06292 -0.197057 0.726
-0.0628333 -0.195405 0.725
-0.0628333 -0.194024 0.725
-0.06266 -0.192111 0.723
-0.0625733 -0.190471 0.722
-0.0624 -0.188571 0.72
-0.0623133 -0.18694 0.719
-0.0623133 -0.18557 0.719
-0.0623133 -0.184201 0.719
-0.0623133 -0.182831 0.719
-0.0623133 -0.181462 0.719
-0.06214 -0.179591 0.717
-0.06214 -0.178226 0.717
-0.06214 -0.17686 0.717
-0.0620533 -0.17525 0.716
-0.06214 -0.174129 0.717
-0.06214 -0.172763 0.717
-0.06214 -0.171397 0.717
-0.06214 -0.170031 0.717
-0.06214 -0.168666 0.717
-0.0623133 -0.167767 0.719
-0.0623133 -0.166397 0.719
-0.0623133 -0.165028 0.719
-0.0623133 -0.163658 0.719
-0.0623133 -0.162289 0.719
-0.0624 -0.161143 0.72
-0.0624 -0.159771 0.72
-0.0625733 -0.15884 0.722
-0.0625733 -0.157465 0.722
-0.06266 -0.156306 0.723
-0.06266 -0.154929 0.723
-0.0628333 -0.153976 0.725
-0.0628333 -0.152595 0.725
-0.06292 -0.151423 0.726
-0.06292 -0.15004 0.726
-0.0630933 -0.149067 0.728
-0.06318 -0.147883 0.729
-0.06318 -0.146494 0.729
-0.0633533 -0.145504 0.731
-0.0633533 -0.144111 0.731
-0.0633533 -0.142719 0.731
-0.0633533 -0.141327 0.731
-0.06344 -0.140126 0.732
-0.06344 -0.138731 0.732
-0.0636133 -0.137712 0.734
-0.0636133 -0.136314 0.734
-0.0637867 -0.135284 0.736
-0.0637867 -0.133882 0.736
-0.0637867 -0.13248 0.736
-0.0638733 -0.131256 0.737
-0.0638733 -0.129852 0.737
-0.0638733 -0.128449 0.737
-0.0640467 -0.12739 0.739
-0.0641333 -0.126152 0.74
-0.0641333 -0.124743 0.74
-0.0643067 -0.123667 0.742
-0.0643933 -0.122418 0.743
-0.0643933 -0.121003 0.743
-0.0645667 -0.11991 0.745
-0.0645667 -0.118491 0.745
-0.06474 -0.117386 0.747
-0.0648267 -0.116118 0.748
-0.0648267 -0.114693 0.748
-0.065 -0.113571 0.75
-0.065 -0.112143 0.75
-0.065 -0.110714 0.75
-0.0651733 -0.109577 0.752
-0.0651733 -0.108145 0.752
-0.0651733 -0.106712 0.752
-0.06526 -0.10542 0.753
-0.0654333 -0.104262 0.755
-0.0654333 -0.102824 0.755
-0.0656933 -0.101789 0.758
-0.0656933 -0.100345 0.758
-0.0658667 -0.0991619 0.76
-0.0658667 -0.0977143 0.76
-0.0659533 -0.0963933 0.761
-0.0659533 -0.0949438 0.761
-0.0659533 -0.0934943 0.761
-0.0659533 -0.0920448 0.761
-0.0661267 -0.0908333 0.763
-0.0663 -0.0896143 0.765
-0.0663 -0.0881571 0.765
-0.06656 -0.08704 0.768
-0.06656 -0.0855772 0.768
-0.0667333 -0.0843333 0.77
-0.0667333 -0.0828667 0.77
-0.0669067 -0.0816114 0.772
-0.0669067 -0.080141 0.772
-0.0669933 -0.0787724 0.773
-0.0669933 -0.0773 0.773
-0.0671667 -0.0760238 0.775
-0.06734 -0.07474 0.777
-0.06734 -0.07326 0.777
-0.0675133 -0.0719648 0.779
-0.0675133 -0.070481 0.779
-0.0676 -0.0690857 0.78
-0.0679467 -0.0679467 0.784
-0.0679467 -0.0664533 0.784
-0.06812 -0.0651257 0.786
-0.06812 -0.0636286 0.786
-0.0682933 -0.0622895 0.788
-0.0682933 -0.0607886 0.788
-0.06838 -0.0593629 0.789
-0.0685533 -0.0580067 0.791
-0.0687267 -0.0566429 0.793
-0.0687267 -0.0551324 0.793
-0.0687267 -0.0536219 0.793
-0.0689 -0.0522429 0.795
-0.0689 -0.0507286 0.795
-0.0689 -0.0492143 0.795
-0.0690733 -0.04782 0.797
-0.06916 -0.04636 0.798
-0.0693333 -0.0449524 0.8
-0.0693333 -0.0434286 0.8
-0.0693333 -0.0419048 0.8
-0.0695067 -0.0404819 0.802
-0.0695067 -0.0389543 0.802
-0.0695067 -0.0374267 0.802
-0.0698533 -0.0360781 0.806
-0.0700267 -0.0346286 0.808
-0.0700267 -0.0330895 0.808
-0.0700267 -0.0315505 0.808
-0.0702 -0.0300857 0.81
-0.0702 -0.0285429 0.81
-0.0703733 -0.0270667 0.812
-0.0705467 -0.0255829 0.814
-0.0705467 -0.0240324 0.814
-0.0706333 -0.0225095 0.815
-0.0708067 -0.0210086 0.817
-0.0708067 -0.0194524 0.817
-0.07098 -0.01794 0.819
-0.0711533 -0.01642 0.821
-0.0713267 -0.0148924 0.823
-0.0713267 -0.0133248 0.823
-0.0629781 -0.246959 0.743
-0.0629781 -0.245544 0.743
-0.0626391 -0.242814 0.739
-0.0627238 -0.241733 0.74
-0.0627238 -0.240324 0.74
-0.0628933 -0.23956 0.742
-0.0627238 -0.237505 0.74
-0.0627238 -0.236095 0.74
-0.0628933 -0.23532 0.742
-0.0628933 -0.233907 0.742
-0.0629781 -0.232807 0.743
-0.0629781 -0.231391 0.743
-0.0629781 -0.229976 0.743
-0.0629781 -0.228561 0.743
-0.0629781 -0.227146 0.743
-0.0629781 -0.22573 0.743
-0.0628933 -0.224013 0.742
-0.0628933 -0.2226 0.742
-0.0627238 -0.220591 0.74
-0.0626391 -0.218885 0.739
-0.0626391 -0.217477 0.739
-0.0624695 -0.215485 0.737
-0.0624695 -0.214081 0.737
-0.0623848 -0.212389 0.736
-0.0622152 -0.210413 0.734
-0.0620457 -0.208446 0.732
-0.0620457 -0.207051 0.732
-0.061961 -0.205376 0.731
-0.061961 -0.203984 0.731
-0.0617914 -0.202037 0.729
-0.0617067 -0.200373 0.728
-0.0615371 -0.19844 0.726
-0.0615371 -0.197057 0.726
-0.0615371 -0.195674 0.726
-0.0614524 -0.194024 0.725
-0.0612829 -0.192111 0.723
-0.0612829 -0.190734 0.723
-0.0611981 -0.189095 0.722
-0.0610286 -0.1872 0.72
-0.0610286 -0.185829 0.72
-0.0610286 -0.184457 0.72
-0.0610286 -0.183086 0.72
-0.0609438 -0.181462 0.719
-0.0609438 -0.180092 0.719
-0.0607743 -0.178226 0.717
-0.0607743 -0.17686 0.717
-0.0607743 -0.175494 0.717
-0.0609438 -0.174614 0.719
-0.0609438 -0.173245 0.719
-0.0609438 -0.171875 0.719
-0.0609438 -0.170506 0.719
-0.0609438 -0.169136 0.719
-0.0609438 -0.167767 0.719
-0.0609438 -0.166397 0.719
-0.0609438 -0.165028 0.719
-0.0609438 -0.163658 0.719
-0.0609438 -0.162289 0.719
-0.0611981 -0.161591 0.722
-0.0612829 -0.160437 0.723
-0.0614524 -0.1595 0.725
-0.0614524 -0.158119 0.725
-0.0614524 -0.156738 0.725
-0.0614524 -0.155357 0.725
-0.0614524 -0.153976 0.725
-0.0615371 -0.152806 0.726
-0.0615371 -0.151423 0.726
-0.0617067 -0.150453 0.728
-0.0617914 -0.149271 0.729
-0.0617914 -0.147883 0.729
-0.0617914 -0.146494 0.729
-0.061961 -0.145504 0.731
-0.061961 -0.144111 0.731
-0.0620457 -0.142914 0.732
-0.0620457 -0.14152 0.732
-0.0620457 -0.140126 0.732
-0.0622152 -0.139111 0.734
-0.0623848 -0.138088 0.736
-0.0623848 -0.136686 0.736
-0.0623848 -0.135284 0.736
-0.0624695 -0.134064 0.737
-0.0624695 -0.13266 0.737
-0.0624695 -0.131256 0.737
-0.0624695 -0.129852 0.737
-0.0626391 -0.128797 0.739
-0.0626391 -0.12739 0.739
-0.0627238 -0.126152 0.74
-0.0627238 -0.124743 0.74
-0.0628933 -0.123667 0.742
-0.0629781 -0.122418 0.743
-0.0629781 -0.121003 0.743
-0.0631476 -0.11991 0.745
-0.0633171 -0.118809 0.747
-0.0633171 -0.117386 0.747
-0.0634019 -0.116118 0.748
-0.0635714 -0.115 0.75
-0.0635714 -0.113571 0.75
-0.0635714 -0.112143 0.75
-0.0637409 -0.11101 0.752
-0.0637409 -0.109577 0.752
-0.0637409 -0.108145 0.752
-0.0638257 -0.106854 0.753
-0.0638257 -0.10542 0.753
-0.0638257 -0.103986 0.753
-0.0639952 -0.102824 0.755
-0.06408 -0.10152 0.756
-0.0642495 -0.100345 0.758
-0.0644191 -0.0991619 0.76
-0.0644191 -0.0977143 0.76
-0.0645038 -0.0963933 0.761
-0.0645038 -0.0949438 0.761
-0.0646733 -0.09374 0.763
-0.0646733 -0.0922867 0.763
-0.0646733 -0.0908333 0.763
-0.0648429 -0.0896143 0.765
-0.0650124 -0.0883876 0.767
-0.0650971 -0.08704 0.768
-0.0652667 -0.0858 0.77
-0.0652667 -0.0843333 0.77
-0.0654362 -0.0830819 0.772
-0.0654362 -0.0816114 0.772
-0.065521 -0.0802448 0.773
-0.065521 -0.0787724 0.773
-0.065521 -0.0773 0.773
-0.0656905 -0.0760238 0.775
-0.06586 -0.07474 0.777
-0.06586 -0.07326 0.777
-0.0660295 -0.0719648 0.779
-0.0661143 -0.0705714 0.78
-0.0661143 -0.0690857 0.78
-0.0661143 -0.0676 0.78
-0.0662838 -0.0662838 0.782
-0.0664533 -0.06496 0.784
-0.0666229 -0.0636286 0.786
-0.0666229 -0.0621314 0.786
-0.0666229 -0.0606343 0.786
-0.0667924 -0.0592876 0.788
-0.0668771 -0.05786 0.789
-0.0670467 -0.0565 0.791
-0.0670467 -0.0549933 0.791
-0.0670467 -0.0534867 0.791
-0.0672162 -0.0521114 0.793
-0.0672162 -0.050601 0.793
-0.0672162 -0.0490905 0.793
-0.0673857 -0.0477 0.795
-0.0675552 -0.0463019 0.797
-0.06764 -0.04484 0.798
-0.06764 -0.04332 0.798
-0.06764 -0.0418 0.798
-0.0678095 -0.040381 0.8
-0.0678095 -0.0388571 0.8
-0.0679791 -0.0374267 0.802
-0.0681486 -0.0359886 0.804
-0.0681486 -0.0344571 0.804
-0.0683181 -0.0330076 0.806
-0.0683181 -0.0314724 0.806
-0.0684876 -0.0300114 0.808
-0.0684876 -0.0284724 0.808
-0.0686571 -0.027 0.81
-0.0688267 -0.02552 0.812
-0.0688267 -0.0239733 0.812
-0.0689962 -0.0224819 0.814
-0.0689962 -0.0209314 0.814
-0.069081 -0.0194048 0.815
-0.06942 -0.01794 0.819
-0.0695895 -0.01642 0.821
-0.069759 -0.0148924 0.823
-0.069759 -0.0133248 0.823
-0.0615629 -0.246959 0.743
-0.06148 -0.245213 0.742
-0.0613143 -0.243143 0.74
-0.06148 -0.242387 0.742
-0.06148 -0.240973 0.742
-0.06148 -0.23956 0.742
-0.0615629 -0.238468 0.743
-0.0615629 -0.237052 0.743
-0.0615629 -0.235637 0.743
-0.0615629 -0.234222 0.743
-0.0617286 -0.233433 0.745
-0.0617286 -0.232014 0.745
-0.0617286 -0.230595 0.745
-0.0617286 -0.229176 0.745
-0.0617286 -0.227757 0.745
-0.0617286 -0.226338 0.745
-0.0615629 -0.224315 0.743
-0.06148 -0.2226 0.742
-0.0613143 -0.220591 0.74
-0.0613143 -0.219181 0.74
-0.0612314 -0.217477 0.739
-0.0612314 -0.21607 0.739
-0.0610657 -0.214081 0.737
-0.0609829 -0.212389 0.736
-0.0609829 -0.210987 0.736
-0.0608171 -0.209015 0.734
-0.0606514 -0.207051 0.732
-0.0606514 -0.205657 0.732
-0.0606514 -0.204263 0.732
-0.0605686 -0.202591 0.731
-0.06032 -0.200373 0.728
-0.0601543 -0.19844 0.726
-0.0601543 -0.197057 0.726
-0.0601543 -0.195674 0.726
-0.0600714 -0.194024 0.725
-0.0599057 -0.192111 0.723
-0.0599057 -0.190734 0.723
-0.0598229 -0.189095 0.722
-0.0596571 -0.1872 0.72
-0.0596571 -0.185829 0.72
-0.0596571 -0.184457 0.72
-0.0596571 -0.183086 0.72
-0.0596571 -0.181714 0.72
-0.0596571 -0.180343 0.72
-0.0594086 -0.178226 0.717
-0.0595743 -0.177353 0.719
-0.0595743 -0.175984 0.719
-0.0595743 -0.174614 0.719
-0.0595743 -0.173245 0.719
-0.0595743 -0.171875 0.719
-0.0595743 -0.170506 0.719
-0.0595743 -0.169136 0.719
-0.0595743 -0.167767 0.719
-0.0595743 -0.166397 0.719
-0.0596571 -0.165257 0.72
-0.0596571 -0.163886 0.72
-0.0596571 -0.162514 0.72
-0.0599057 -0.161814 0.723
-0.0600714 -0.160881 0.725
-0.0600714 -0.1595 0.725
-0.0600714 -0.158119 0.725
-0.0601543 -0.156954 0.726
-0.0601543 -0.155571 0.726
-0.0601543 -0.154189 0.726
-0.06032 -0.153227 0.728
-0.06032 -0.15184 0.728
-0.0604029 -0.15066 0.729
-0.0605686 -0.149681 0.731
-0.0605686 -0.148289 0.731
-0.0605686 -0.146896 0.731
-0.0606514 -0.145703 0.732
-0.0606514 -0.144309 0.732
-0.0606514 -0.142914 0.732
-0.0606514 -0.14152 0.732
-0.0608171 -0.140509 0.734
-0.0609829 -0.13949 0.736
-0.0609829 -0.138088 0.736
-0.0609829 -0.136686 0.736
-0.0610657 -0.135468 0.737
-0.0610657 -0.134064 0.737
-0.0610657 -0.13266 0.737
-0.0610657 -0.131256 0.737
-0.0612314 -0.130205 0.739
-0.0612314 -0.128797 0.739
-0.0612314 -0.12739 0.739
-0.06148 -0.126493 0.742
-0.06148 -0.12508 0.742
-0.06148 -0.123667 0.742
-0.0615629 -0.122418 0.743
-0.0617286 -0.121329 0.745
-0.0618943 -0.120231 0.747
-0.0618943 -0.118809 0.747
-0.0619771 -0.117543 0.748
-0.0621429 -0.116429 0.75
-0.0621429 -0.115 0.75
-0.0623086 -0.113874 0.752
-0.0623086 -0.112442 0.752
-0.0623086 -0.11101 0.752
-0.0623086 -0.109577 0.752
-0.0623914 -0.108289 0.753
-0.0625572 -0.107138 0.755
-0.0625572 -0.1057 0.755
-0.06264 -0.1044 0.756
-0.06264 -0.10296 0.756
-0.0628057 -0.101789 0.758
-0.0629714 -0.10061 0.76
-0.0629714 -0.0991619 0.76
-0.0629714 -0.0977143 0.76
-0.0630543 -0.0963933 0.761
-0.0630543 -0.0949438 0.761
-0.06322 -0.09374 0.763
-0.06322 -0.0922867 0.763
-0.06322 -0.0908333 0.763
-0.0633857 -0.0896143 0.765
-0.0635514 -0.0883876 0.767
-0.0638 -0.0872667 0.77
-0.0638 -0.0858 0.77
-0.0639657 -0.0845524 0.772
-0.0639657 -0.0830819 0.772
-0.0639657 -0.0816114 0.772
-0.0640486 -0.0802448 0.773
-0.0642143 -0.0789762 0.775
-0.0642143 -0.0775 0.775
-0.06438 -0.07622 0.777
-0.06438 -0.07474 0.777
-0.06438 -0.07326 0.777
-0.0645457 -0.0719648 0.779
-0.0645457 -0.070481 0.779
-0.0646286 -0.0690857 0.78
-0.0646286 -0.0676 0.78
-0.0647943 -0.0662838 0.782
-0.06496 -0.06496 0.784
-0.0651257 -0.0636286 0.786
-0.0651257 -0.0621314 0.786
-0.0652914 -0.0607886 0.788
-0.0652914 -0.0592876 0.788
-0.0653743 -0.05786 0.789
-0.06554 -0.0565 0.791
-0.06554 -0.0549933 0.791
-0.06554 -0.0534867 0.791
-0.0657057 -0.0521114 0.793
-0.0657057 -0.050601 0.793
-0.0658714 -0.0492143 0.795
-0.0658714 -0.0477 0.795
-0.06612 -0.04636 0.798
-0.06612 -0.04484 0.798
-0.06612 -0.04332 0.798
-0.0662857 -0.0419048 0.8
-0.0662857 -0.040381 0.8
-0.0662857 -0.0388571 0.8
-0.0664514 -0.0374267 0.802
-0.0666171 -0.0359886 0.804
-0.0666171 -0.0344571 0.804
-0.0667828 -0.0330076 0.806
-0.0667828 -0.0314724 0.806
-0.0669486 -0.0300114 0.808
-0.0669486 -0.0284724 0.808
-0.0671143 -0.027 0.81
-0.06728 -0.02552 0.812
-0.06728 -0.0239733 0.812
-0.0674457 -0.0224819 0.814
-0.0675286 -0.0209571 0.815
-0.0675286 -0.0194048 0.815
-0.0676943 -0.0178962 0.817
-0.0676943 -0.01634 0.817
-0.06786 -0.01482 0.819
-0.0680257 -0.0132924 0.821
-0.0680257 -0.0117286 0.821
-0.0601476 -0.246959 0.743
-0.0600667 -0.245213 0.742
-0.0599048 -0.243143 0.74
-0.0601476 -0.242713 0.743
-0.0601476 -0.241298 0.743
-0.0601476 -0.239883 0.743
-0.0601476 -0.238468 0.743
-0.0601476 -0.237052 0.743
-0.0603095 -0.236271 0.745
-0.0603095 -0.234852 0.745
-0.0603095 -0.233433 0.745
-0.0604714 -0.232637 0.747
-0.0603095 -0.230595 0.745
-0.0603095 -0.229176 0.745
-0.0603095 -0.227757 0.745
-0.0603095 -0.226338 0.745
-0.0601476 -0.224315 0.743
-0.0601476 -0.2229 0.743
-0.0600667 -0.221187 0.742
-0.0600667 -0.219773 0.742
-0.0599048 -0.217771 0.74
-0.0598238 -0.21607 0.739
-0.0598238 -0.214662 0.739
-0.0596619 -0.212677 0.737
-0.059581 -0.210987 0.736
-0.059581 -0.209585 0.736
-0.0592571 -0.207051 0.732
-0.0592571 -0.205657 0.732
-0.0591762 -0.203984 0.731
-0.0591762 -0.202591 0.731
-0.0589333 -0.200373 0.728
-0.0589333 -0.198987 0.728
-0.0587714 -0.197057 0.726
-0.0587714 -0.195674 0.726
-0.0586905 -0.194024 0.725
-0.0585286 -0.192111 0.723
-0.0585286 -0.190734 0.723
-0.0584476 -0.189095 0.722
-0.0582857 -0.1872 0.72
-0.0582857 -0.185829 0.72
-0.0582857 -0.184457 0.72
-0.0582857 -0.183086 0.72
-0.0582857 -0.181714 0.72
-0.0582857 -0.180343 0.72
-0.0582048 -0.178723 0.719
-0.0582048 -0.177353 0.719
-0.0582048 -0.175984 0.719
-0.0582048 -0.174614 0.719
-0.0582048 -0.173245 0.719
-0.0582048 -0.171875 0.719
-0.0582048 -0.170506 0.719
-0.0582048 -0.169136 0.719
-0.0582857 -0.168 0.72
-0.0582857 -0.166629 0.72
-0.0584476 -0.165716 0.722
-0.0584476 -0.164341 0.722
-0.0584476 -0.162966 0.722
-0.0586905 -0.162262 0.725
-0.0586905 -0.160881 0.725
-0.0587714 -0.15972 0.726
-0.0587714 -0.158337 0.726
-0.0587714 -0.156954 0.726
-0.0589333 -0.156 0.728
-0.0589333 -0.154613 0.728
-0.0590143 -0.153437 0.729
-0.0590143 -0.152049 0.729
-0.0591762 -0.151073 0.731
-0.0591762 -0.149681 0.731
-0.0591762 -0.148289 0.731
-0.0591762 -0.146896 0.731
-0.0592571 -0.145703 0.732
-0.0592571 -0.144309 0.732
-0.0592571 -0.142914 0.732
-0.0594191 -0.141907 0.734
-0.0594191 -0.140509 0.734
-0.059581 -0.13949 0.736
-0.059581 -0.138088 0.736
-0.0596619 -0.136871 0.737
-0.0596619 -0.135468 0.737
-0.0596619 -0.134064 0.737
-0.0596619 -0.13266 0.737
-0.0598238 -0.131612 0.739
-0.0598238 -0.130205 0.739
-0.0599048 -0.128971 0.74
-0.0600667 -0.127907 0.742
-0.0600667 -0.126493 0.742
-0.0600667 -0.12508 0.742
-0.0601476 -0.123833 0.743
-0.0604714 -0.123077 0.747
-0.0603095 -0.121329 0.745
-0.0605524 -0.120392 0.748
-0.0605524 -0.118968 0.748
-0.0605524 -0.117543 0.748
-0.0608762 -0.116739 0.752
-0.0608762 -0.115307 0.752
-0.0608762 -0.113874 0.752
-0.0608762 -0.112442 0.752
-0.0609571 -0.111157 0.753
-0.0609571 -0.109723 0.753
-0.061119 -0.108576 0.755
-0.061119 -0.107138 0.755
-0.0612 -0.10584 0.756
-0.0612 -0.1044 0.756
-0.0612 -0.10296 0.756
-0.0613619 -0.101789 0.758
-0.0615238 -0.10061 0.76
-0.0616048 -0.0992924 0.761
-0.0616048 -0.0978429 0.761
-0.0617667 -0.0966467 0.763
-0.0617667 -0.0951933 0.763
-0.0617667 -0.09374 0.763
-0.0617667 -0.0922867 0.763
-0.0619286 -0.0910714 0.765
-0.0620905 -0.0898486 0.767
-0.0621714 -0.0885028 0.768
-0.0623333 -0.0872667 0.77
-0.0623333 -0.0858 0.77
-0.0624952 -0.0845524 0.772
-0.0624952 -0.0830819 0.772
-0.0624952 -0.0816114 0.772
-0.0625762 -0.0802448 0.773
-0.0627381 -0.0789762 0.775
-0.0629 -0.0777 0.777
-0.0629 -0.07622 0.777
-0.0629 -0.07474 0.777
-0.0630619 -0.0734486 0.779
-0.0630619 -0.0719648 0.779
-0.0631429 -0.0705714 0.78
-0.0631429 -0.0690857 0.78
-0.0633048 -0.0677733 0.782
-0.0634667 -0.0664533 0.784
-0.0634667 -0.06496 0.784
-0.0636286 -0.0636286 0.786
-0.0636286 -0.0621314 0.786
-0.0637905 -0.0607886 0.788
-0.0638714 -0.0593629 0.789
-0.0640333 -0.0580067 0.791
-0.0640333 -0.0565 0.791
-0.0640333 -0.0549933 0.791
-0.0641953 -0.0536219 0.793
-0.0641953 -0.0521114 0.793
-0.0643571 -0.0507286 0.795
-0.0643571 -0.0492143 0.795
-0.064519 -0.04782 0.797
-0.0646 -0.04636 0.798
-0.0646 -0.04484 0.798
-0.0646 -0.04332 0.798
-0.0647619 -0.0419048 0.8
-0.0647619 -0.040381 0.8
-0.0649238 -0.0389543 0.802
-0.0649238 -0.0374267 0.802
-0.0650857 -0.0359886 0.804
-0.0652476 -0.0345429 0.806
-0.0652476 -0.0330076 0.806
-0.0654095 -0.0315505 0.808
-0.0654095 -0.0300114 0.808
-0.0654095 -0.0284724 0.808
-0.0655714 -0.027 0.81
-0.0657333 -0.02552 0.812
-0.0658952 -0.0240324 0.814
-0.0658952 -0.0224819 0.814
-0.0659762 -0.0209571 0.815
-0.0659762 -0.0194048 0.815
-0.0661381 -0.0178962 0.817
-0.0661381 -0.01634 0.817
-0.0663 -0.01482 0.819
-0.0663 -0.01326 0.819
-0.0664619 -0.0117286 0.821
-0.0588905 -0.250462 0.745
-0.0587324 -0.248374 0.743
-0.0587324 -0.246959 0.743
-0.0587324 -0.245544 0.743
-0.0587324 -0.244129 0.743
-0.0587324 -0.242713 0.743
-0.0587324 -0.241298 0.743
-0.0587324 -0.239883 0.743
-0.0587324 -0.238468 0.743
-0.0588905 -0.23769 0.745
-0.0588905 -0.236271 0.745
-0.0590486 -0.235483 0.747
-0.0590486 -0.23406 0.747
-0.0590486 -0.232637 0.747
-0.0590486 -0.231214 0.747
-0.0591276 -0.230099 0.748
-0.0590486 -0.228369 0.747
-0.0590486 -0.226946 0.747
-0.0588905 -0.224919 0.745
-0.0587324 -0.2229 0.743
-0.0587324 -0.221485 0.743
-0.0586533 -0.219773 0.742
-0.0584952 -0.217771 0.74
-0.0584162 -0.21607 0.739
-0.0582581 -0.214081 0.737
-0.0582581 -0.212677 0.737
-0.0581791 -0.210987 0.736
-0.0581791 -0.209585 0.736
-0.0580209 -0.207617 0.734
-0.0578629 -0.205657 0.732
-0.0577838 -0.203984 0.731
-0.0577838 -0.202591 0.731
-0.0575467 -0.200373 0.728
-0.0575467 -0.198987 0.728
-0.0573886 -0.197057 0.726
-0.0573886 -0.195674 0.726
-0.0573095 -0.194024 0.725
-0.0573095 -0.192643 0.725
-0.0571514 -0.190734 0.723
-0.0571514 -0.189357 0.723
-0.0570724 -0.18772 0.722
-0.0570724 -0.186345 0.722
-0.0570724 -0.184969 0.722
-0.0570724 -0.183594 0.722
-0.0569143 -0.181714 0.72
-0.0569143 -0.180343 0.72
-0.0568352 -0.178723 0.719
-0.0568352 -0.177353 0.719
-0.0568352 -0.175984 0.719
-0.0568352 -0.174614 0.719
-0.0568352 -0.173245 0.719
-0.0568352 -0.171875 0.719
-0.0569143 -0.170743 0.72
-0.0569143 -0.169371 0.72
-0.0569143 -0.168 0.72
-0.0570724 -0.167091 0.722
-0.0571514 -0.165946 0.723
-0.0571514 -0.164569 0.723
-0.0571514 -0.163191 0.723
-0.0573095 -0.162262 0.725
-0.0573886 -0.161103 0.726
-0.0573886 -0.15972 0.726
-0.0573886 -0.158337 0.726
-0.0573886 -0.156954 0.726
-0.0575467 -0.156 0.728
-0.0576257 -0.154826 0.729
-0.0576257 -0.153437 0.729
-0.0577838 -0.152466 0.731
-0.0577838 -0.151073 0.731
-0.0577838 -0.149681 0.731
-0.0577838 -0.148289 0.731
-0.0578629 -0.147097 0.732
-0.0578629 -0.145703 0.732
-0.0578629 -0.144309 0.732
-0.0580209 -0.143305 0.734
-0.0580209 -0.141907 0.734
-0.0581791 -0.140891 0.736
-0.0581791 -0.13949 0.736
-0.0582581 -0.138275 0.737
-0.0582581 -0.136871 0.737
-0.0582581 -0.135468 0.737
-0.0584162 -0.134428 0.739
-0.0582581 -0.13266 0.737
-0.0584162 -0.131612 0.739
-0.0584952 -0.130381 0.74
-0.0586533 -0.12932 0.742
-0.0586533 -0.127907 0.742
-0.0587324 -0.126664 0.743
-0.0587324 -0.125249 0.743
-0.0587324 -0.123833 0.743
-0.0588905 -0.122748 0.745
-0.0588905 -0.121329 0.745
-0.0591276 -0.120392 0.748
-0.0591276 -0.118968 0.748
-0.0592857 -0.117857 0.75
-0.0592857 -0.116429 0.75
-0.0595229 -0.11546 0.753
-0.0595229 -0.114026 0.753
-0.0595229 -0.112591 0.753
-0.059681 -0.111452 0.755
-0.059681 -0.110014 0.755
-0.05976 -0.10872 0.756
-0.05976 -0.10728 0.756
-0.05976 -0.10584 0.756
-0.0599181 -0.104676 0.758
-0.0599181 -0.103232 0.758
-0.0600762 -0.102057 0.76
-0.0601552 -0.100742 0.761
-0.0603133 -0.0995533 0.763
-0.0603133 -0.0981 0.763
-0.0603133 -0.0966467 0.763
-0.0603133 -0.0951933 0.763
-0.0604714 -0.0939857 0.765
-0.0604714 -0.0925286 0.765
-0.0604714 -0.0910714 0.765
-0.0606295 -0.0898486 0.767
-0.0607086 -0.0885028 0.768
-0.0608667 -0.0872667 0.77
-0.0608667 -0.0858 0.77
-0.0610248 -0.0845524 0.772
-0.0610248 -0.0830819 0.772
-0.0611038 -0.0817171 0.773
-0.0612619 -0.0804524 0.775
-0.0612619 -0.0789762 0.775
-0.06142 -0.0777 0.777
-0.06142 -0.07622 0.777
-0.0615781 -0.0749324 0.779
-0.0615781 -0.0734486 0.779
-0.0615781 -0.0719648 0.779
-0.0616571 -0.0705714 0.78
-0.0618152 -0.0692629 0.782
-0.0618152 -0.0677733 0.782
-0.0619733 -0.0664533 0.784
-0.0621314 -0.0651257 0.786
-0.0621314 -0.0636286 0.786
-0.0622895 -0.0622895 0.788
-0.0623686 -0.0608657 0.789
-0.0623686 -0.0593629 0.789
-0.0625267 -0.0580067 0.791
-0.0625267 -0.0565 0.791
-0.0625267 -0.0549933 0.791
-0.0626848 -0.0536219 0.793
-0.0628429 -0.0522429 0.795
-0.0628429 -0.0507286 0.795
-0.0630009 -0.0493381 0.797
-0.06308 -0.04788 0.798
-0.06308 -0.04636 0.798
-0.0632381 -0.0449524 0.8
-0.0632381 -0.0434286 0.8
-0.0632381 -0.0419048 0.8
-0.0632381 -0.040381 0.8
-0.0633962 -0.0389543 0.802
-0.0633962 -0.0374267 0.802
-0.0635543 -0.0359886 0.804
-0.0637124 -0.0345429 0.806
-0.0637124 -0.0330076 0.806
-0.0638705 -0.0315505 0.808
-0.0638705 -0.0300114 0.808
-0.0638705 -0.0284724 0.808
-0.0641867 -0.0270667 0.812
-0.0641867 -0.02552 0.812
-0.0643448 -0.0240324 0.814
-0.0643448 -0.0224819 0.814
-0.0644238 -0.0209571 0.815
-0.0644238 -0.0194048 0.815
-0.0645819 -0.0178962 0.817
-0.0645819 -0.01634 0.817
-0.0645819 -0.0147838 0.817
-0.06474 -0.01326 0.819
-0.0648981 -0.0117286 0.821
-0.0574714 -0.250462 0.745
-0.0574714 -0.249043 0.745
-0.0573171 -0.246959 0.743
-0.0573171 -0.245544 0.743
-0.0573171 -0.244129 0.743
-0.0573171 -0.242713 0.743
-0.0574714 -0.241948 0.745
-0.0574714 -0.240529 0.745
-0.0574714 -0.23911 0.745
-0.0574714 -0.23769 0.745
-0.0576257 -0.236906 0.747
-0.0576257 -0.235483 0.747
-0.0577029 -0.234373 0.748
-0.0577029 -0.232949 0.748
-0.0577029 -0.231524 0.748
-0.0577029 -0.230099 0.748
-0.0577029 -0.228674 0.748
-0.0577029 -0.22725 0.748
-0.0574714 -0.224919 0.745
-0.0573171 -0.2229 0.743
-0.0573171 -0.221485 0.743
-0.05724 -0.219773 0.742
-0.0570857 -0.217771 0.74
-0.0570086 -0.21607 0.739
-0.0570086 -0.214662 0.739
-0.0568543 -0.212677 0.737
-0.0568543 -0.211273 0.737
-0.0567771 -0.209585 0.736
-0.0566229 -0.207617 0.734
-0.0564686 -0.205657 0.732
-0.0563914 -0.203984 0.731
-0.0563914 -0.202591 0.731
-0.05616 -0.200373 0.728
-0.05616 -0.198987 0.728
-0.05616 -0.1976 0.728
-0.0560057 -0.195674 0.726
-0.0560057 -0.194291 0.726
-0.0559286 -0.192643 0.725
-0.0559286 -0.191262 0.725
-0.0559286 -0.189881 0.725
-0.0557743 -0.18798 0.723
-0.0556972 -0.186345 0.722
-0.0556972 -0.184969 0.722
-0.0556972 -0.183594 0.722
-0.0556972 -0.182219 0.722
-0.0555429 -0.180343 0.72
-0.0555429 -0.178971 0.72
-0.0555429 -0.1776 0.72
-0.0555429 -0.176229 0.72
-0.0555429 -0.174857 0.72
-0.0555429 -0.173486 0.72
-0.0555429 -0.172114 0.72
-0.0555429 -0.170743 0.72
-0.0556972 -0.169842 0.722
-0.0556972 -0.168467 0.722
-0.0557743 -0.167323 0.723
-0.0557743 -0.165946 0.723
-0.0559286 -0.165024 0.725
-0.0559286 -0.163643 0.725
-0.0560057 -0.162486 0.726
-0.0560057 -0.161103 0.726
-0.0560057 -0.15972 0.726
-0.0560057 -0.158337 0.726
-0.05616 -0.157387 0.728
-0.05616 -0.156 0.728
-0.0562371 -0.154826 0.729
-0.0562371 -0.153437 0.729
-0.0563914 -0.152466 0.731
-0.0563914 -0.151073 0.731
-0.0563914 -0.149681 0.731
-0.0564686 -0.148491 0.732
-0.0564686 -0.147097 0.732
-0.0566229 -0.146101 0.734
-0.0566229 -0.144703 0.734
-0.0567771 -0.143695 0.736
-0.0567771 -0.142293 0.736
-0.0567771 -0.140891 0.736
-0.0568543 -0.139679 0.737
-0.0568543 -0.138275 0.737
-0.0570086 -0.137243 0.739
-0.0570086 -0.135835 0.739
-0.0570086 -0.134428 0.739
-0.0570086 -0.13302 0.739
-0.0570857 -0.131791 0.74
-0.0570857 -0.130381 0.74
-0.05724 -0.12932 0.742
-0.0573171 -0.128079 0.743
-0.0573171 -0.126664 0.743
-0.0573171 -0.125249 0.743
-0.0574714 -0.124167 0.745
-0.0576257 -0.123077 0.747
-0.0576257 -0.121654 0.747
-0.0577029 -0.120392 0.748
-0.0578571 -0.119286 0.75
-0.0578571 -0.117857 0.75
-0.0580114 -0.116739 0.752
-0.0580886 -0.11546 0.753
-0.0582429 -0.114329 0.755
-0.0582429 -0.11289 0.755
-0.05832 -0.1116 0.756
-0.05832 -0.11016 0.756
-0.05832 -0.10872 0.756
-0.0584743 -0.107564 0.758
-0.0584743 -0.10612 0.758
-0.0584743 -0.104676 0.758
-0.0586286 -0.103505 0.76
-0.0587057 -0.102191 0.761
-0.05886 -0.101007 0.763
-0.05886 -0.0995533 0.763
-0.05886 -0.0981 0.763
-0.0590143 -0.0969 0.765
-0.0590143 -0.0954429 0.765
-0.0590143 -0.0939857 0.765
-0.0591686 -0.0927705 0.767
-0.0591686 -0.0913095 0.767
-0.0592457 -0.0899657 0.768
-0.0594 -0.0887333 0.77
-0.0595543 -0.0874933 0.772
-0.0595543 -0.0860229 0.772
-0.0595543 -0.0845524 0.772
-0.0596314 -0.0831895 0.773
-0.0596314 -0.0817171 0.773
-0.0597857 -0.0804524 0.775
-0.05994 -0.07918 0.777
-0.05994 -0.0777 0.777
-0.0600943 -0.0764162 0.779
-0.0600943 -0.0749324 0.779
-0.0600943 -0.0734486 0.779
-0.0601714 -0.0720571 0.78
-0.0601714 -0.0705714 0.78
-0.0603257 -0.0692629 0.782
-0.06048 -0.0679467 0.784
-0.06048 -0.0664533 0.784
-0.0606343 -0.0651257 0.786
-0.0607886 -0.0637905 0.788
-0.0608657 -0.0623686 0.789
-0.0608657 -0.0608657 0.789
-0.0608657 -0.0593629 0.789
-0.06102 -0.0580067 0.791
-0.0611743 -0.0566429 0.793
-0.0611743 -0.0551324 0.793
-0.0613286 -0.0537571 0.795
-0.0614829 -0.0523743 0.797
-0.0614829 -0.0508562 0.797
-0.0614829 -0.0493381 0.797
-0.06156 -0.04788 0.798
-0.06156 -0.04636 0.798
-0.0617143 -0.0449524 0.8
-0.0617143 -0.0434286 0.8
-0.0617143 -0.0419048 0.8
-0.0618686 -0.0404819 0.802
-0.0620229 -0.0390514 0.804
-0.0620229 -0.03752 0.804
-0.0621771 -0.0360781 0.806
-0.0621771 -0.0345429 0.806
-0.0623314 -0.0330895 0.808
-0.0623314 -0.0315505 0.808
-0.0623314 -0.0300114 0.808
-0.0624857 -0.0285429 0.81
-0.06264 -0.0270667 0.812
-0.0627943 -0.0255829 0.814
-0.0627943 -0.0240324 0.814
-0.0628714 -0.0225095 0.815
-0.0628714 -0.0209571 0.815
-0.0630257 -0.0194524 0.817
-0.0630257 -0.0178962 0.817
-0.0630257 -0.01634 0.817
-0.0630257 -0.0147838 0.817
-0.06318 -0.01326 0.819
-0.0633343 -0.0117286 0.821
-0.0558267 -0.259347 0.742
-0.0560524 -0.2533 0.745
-0.0559019 -0.251205 0.743
-0.0559019 -0.24979 0.743
-0.0559019 -0.248374 0.743
-0.0559019 -0.246959 0.743
-0.0559019 -0.245544 0.743
-0.0559019 -0.244129 0.743
-0.0559019 -0.242713 0.743
-0.0559019 -0.241298 0.743
-0.0560524 -0.240529 0.745
-0.0560524 -0.23911 0.745
-0.0560524 -0.23769 0.745
-0.0562029 -0.236906 0.747
-0.0562781 -0.235798 0.748
-0.0562781 -0.234373 0.748
-0.0562781 -0.232949 0.748
-0.0564286 -0.232143 0.75
-0.0564286 -0.230714 0.75
-0.0564286 -0.229286 0.75
-0.0562781 -0.22725 0.748
-0.0562029 -0.225523 0.747
-0.0560524 -0.2235 0.745
-0.0559019 -0.221485 0.743
-0.0558267 -0.219773 0.742
-0.0558267 -0.21836 0.742
-0.0556762 -0.216362 0.74
-0.0556009 -0.214662 0.739
-0.0556009 -0.213254 0.739
-0.0554505 -0.211273 0.737
-0.0553752 -0.209585 0.736
-0.0552248 -0.207617 0.734
-0.0550743 -0.205657 0.732
-0.054999 -0.203984 0.731
-0.054999 -0.202591 0.731
-0.0547733 -0.200373 0.728
-0.0547733 -0.198987 0.728
-0.0547733 -0.1976 0.728
-0.0547733 -0.196213 0.728
-0.0546229 -0.194291 0.726
-0.0546229 -0.192909 0.726
-0.0545476 -0.191262 0.725
-0.0545476 -0.189881 0.725
-0.0545476 -0.1885 0.725
-0.0543972 -0.186603 0.723
-0.0543219 -0.184969 0.722
-0.0543972 -0.183849 0.723
-0.0543972 -0.182471 0.723
-0.0543219 -0.180844 0.722
-0.0543219 -0.179469 0.722
-0.0543219 -0.178093 0.722
-0.0543219 -0.176718 0.722
-0.0543219 -0.175343 0.722
-0.0543219 -0.173968 0.722
-0.0543219 -0.172592 0.722
-0.0543219 -0.171217 0.722
-0.0543972 -0.170077 0.723
-0.0543972 -0.1687 0.723
-0.0545476 -0.167786 0.725
-0.0545476 -0.166405 0.725
-0.0545476 -0.165024 0.725
-0.0545476 -0.163643 0.725
-0.0546229 -0.162486 0.726
-0.0546229 -0.161103 0.726
-0.0547733 -0.16016 0.728
-0.0547733 -0.158773 0.728
-0.0547733 -0.157387 0.728
-0.0548486 -0.156214 0.729
-0.0548486 -0.154826 0.729
-0.054999 -0.153858 0.731
-0.054999 -0.152466 0.731
-0.0550743 -0.15128 0.732
-0.0550743 -0.149886 0.732
-0.0550743 -0.148491 0.732
-0.0552248 -0.147499 0.734
-0.0552248 -0.146101 0.734
-0.0553752 -0.145097 0.736
-0.0553752 -0.143695 0.736
-0.0554505 -0.142487 0.737
-0.0556009 -0.141466 0.739
-0.0556009 -0.140058 0.739
-0.0556009 -0.138651 0.739
-0.0556009 -0.137243 0.739
-0.0556009 -0.135835 0.739
-0.0556009 -0.134428 0.739
-0.0556009 -0.13302 0.739
-0.0556762 -0.131791 0.74
-0.0558267 -0.130733 0.742
-0.0559019 -0.129494 0.743
-0.0559019 -0.128079 0.743
-0.0560524 -0.127005 0.745
-0.0560524 -0.125586 0.745
-0.0560524 -0.124167 0.745
-0.0562029 -0.123077 0.747
-0.0562781 -0.121817 0.748
-0.0562781 -0.120392 0.748
-0.0564286 -0.119286 0.75
-0.056579 -0.118171 0.752
-0.056579 -0.116739 0.752
-0.0568048 -0.115767 0.755
-0.0568048 -0.114329 0.755
-0.05688 -0.11304 0.756
-0.05688 -0.1116 0.756
-0.0570305 -0.110451 0.758
-0.0570305 -0.109008 0.758
-0.0570305 -0.107564 0.758
-0.0570305 -0.10612 0.758
-0.057181 -0.104952 0.76
-0.057181 -0.103505 0.76
-0.0574067 -0.10246 0.763
-0.0574067 -0.101007 0.763
-0.0575572 -0.0998143 0.765
-0.0575572 -0.0983571 0.765
-0.0575572 -0.0969 0.765
-0.0577076 -0.0956924 0.767
-0.0575572 -0.0939857 0.765
-0.0577076 -0.0927705 0.767
-0.0577076 -0.0913095 0.767
-0.0577829 -0.0899657 0.768
-0.0579333 -0.0887333 0.77
-0.0580838 -0.0874933 0.772
-0.0580838 -0.0860229 0.772
-0.0580838 -0.0845524 0.772
-0.058159 -0.0831895 0.773
-0.058159 -0.0817171 0.773
-0.0583095 -0.0804524 0.775
-0.05846 -0.07918 0.777
-0.05846 -0.0777 0.777
-0.0586105 -0.0764162 0.779
-0.0586105 -0.0749324 0.779
-0.0586105 -0.0734486 0.779
-0.0586857 -0.0720571 0.78
-0.0588362 -0.0707524 0.782
-0.0589867 -0.06944 0.784
-0.0589867 -0.0679467 0.784
-0.0591371 -0.0666229 0.786
-0.0592876 -0.0652914 0.788
-0.0593629 -0.0638714 0.789
-0.0593629 -0.0623686 0.789
-0.0595133 -0.06102 0.791
-0.0595133 -0.0595133 0.791
-0.0596638 -0.0581533 0.793
-0.0596638 -0.0566429 0.793
-0.0598143 -0.0552714 0.795
-0.0599648 -0.0538924 0.797
-0.06004 -0.05244 0.798
-0.06004 -0.05092 0.798
-0.06004 -0.0494 0.798
-0.06004 -0.04788 0.798
-0.0601905 -0.0464762 0.8
-0.0601905 -0.0449524 0.8
-0.0601905 -0.0434286 0.8
-0.0603409 -0.0420095 0.802
-0.0603409 -0.0404819 0.802
-0.0604914 -0.0390514 0.804
-0.0606419 -0.0376133 0.806
-0.0606419 -0.0360781 0.806
-0.0606419 -0.0345429 0.806
-0.0607924 -0.0330895 0.808
-0.0607924 -0.0315505 0.808
-0.0609429 -0.0300857 0.81
-0.0609429 -0.0285429 0.81
-0.0612438 -0.0271333 0.814
-0.0612438 -0.0255829 0.814
-0.0612438 -0.0240324 0.814
-0.061319 -0.0225095 0.815
-0.061319 -0.0209571 0.815
-0.0614695 -0.0194524 0.817
-0.0614695 -0.0178962 0.817
-0.06162 -0.01638 0.819
-0.06162 -0.01482 0.819
-0.0617705 -0.0132924 0.821
-0.0544133 -0.259347 0.742
-0.0544867 -0.258281 0.743
-0.0544867 -0.254035 0.743
-0.0546333 -0.2533 0.745
-0.0544867 -0.251205 0.743
-0.0544867 -0.24979 0.743
-0.0544867 -0.248374 0.743
-0.0544867 -0.246959 0.743
-0.0544867 -0.245544 0.743
-0.0544867 -0.244129 0.743
-0.0546333 -0.243367 0.745
-0.0546333 -0.241948 0.745
-0.0546333 -0.240529 0.745
-0.05478 -0.239751 0.747
-0.05478 -0.238329 0.747
-0.0548533 -0.237223 0.748
-0.0548533 -0.235798 0.748
-0.055 -0.235 0.75
-0.055 -0.233571 0.75
-0.055 -0.232143 0.75
-0.055 -0.230714 0.75
-0.055 -0.229286 0.75
-0.055 -0.227857 0.75
-0.0548533 -0.225825 0.748
-0.0546333 -0.2235 0.745
-0.0546333 -0.222081 0.745
-0.0544867 -0.220069 0.743
-0.0544133 -0.21836 0.742
-0.0542667 -0.216362 0.74
-0.0541933 -0.214662 0.739
-0.0541933 -0.213254 0.739
-0.0540467 -0.211273 0.737
-0.0540467 -0.20987 0.737
-0.0539733 -0.208183 0.736
-0.0538267 -0.206219 0.734
-0.05368 -0.204263 0.732
-0.0536067 -0.202591 0.731
-0.05346 -0.200649 0.729
-0.05346 -0.19926 0.729
-0.0533867 -0.1976 0.728
-0.0533867 -0.196213 0.728
-0.0533867 -0.194827 0.728
-0.05324 -0.192909 0.726
-0.05324 -0.191526 0.726
-0.0531667 -0.189881 0.725
-0.0531667 -0.1885 0.725
-0.0531667 -0.187119 0.725
-0.05302 -0.185226 0.723
-0.05302 -0.183849 0.723
-0.05302 -0.182471 0.723
-0.0529467 -0.180844 0.722
-0.05302 -0.179717 0.723
-0.0529467 -0.178093 0.722
-0.0529467 -0.176718 0.722
-0.0529467 -0.175343 0.722
-0.0529467 -0.173968 0.722
-0.05302 -0.172831 0.723
-0.05302 -0.171454 0.723
-0.05302 -0.170077 0.723
-0.0531667 -0.169167 0.725
-0.0531667 -0.167786 0.725
-0.05324 -0.166634 0.726
-0.05324 -0.165251 0.726
-0.05324 -0.163869 0.726
-0.05324 -0.162486 0.726
-0.05324 -0.161103 0.726
-0.0533867 -0.16016 0.728
-0.05346 -0.158991 0.729
-0.05346 -0.157603 0.729
-0.05346 -0.156214 0.729
-0.0536067 -0.155251 0.731
-0.0536067 -0.153858 0.731
-0.0536067 -0.152466 0.731
-0.05368 -0.15128 0.732
-0.05368 -0.149886 0.732
-0.05368 -0.148491 0.732
-0.0538267 -0.147499 0.734
-0.0539733 -0.146499 0.736
-0.0539733 -0.145097 0.736
-0.0540467 -0.143891 0.737
-0.0540467 -0.142487 0.737
-0.0541933 -0.141466 0.739
-0.0541933 -0.140058 0.739
-0.0541933 -0.138651 0.739
-0.0542667 -0.137429 0.74
-0.0542667 -0.136019 0.74
-0.0544133 -0.134973 0.742
-0.0544133 -0.13356 0.742
-0.0544867 -0.132325 0.743
-0.0544867 -0.13091 0.743
-0.0546333 -0.129843 0.745
-0.0546333 -0.128424 0.745
-0.05478 -0.127346 0.747
-0.0546333 -0.125586 0.745
-0.05478 -0.1245 0.747
-0.0548533 -0.123242 0.748
-0.055 -0.122143 0.75
-0.055 -0.120714 0.75
-0.0551467 -0.119604 0.752
-0.0551467 -0.118171 0.752
-0.0553667 -0.117205 0.755
-0.0553667 -0.115767 0.755
-0.05544 -0.11448 0.756
-0.05544 -0.11304 0.756
-0.05544 -0.1116 0.756
-0.0555867 -0.110451 0.758
-0.0555867 -0.109008 0.758
-0.0557333 -0.107848 0.76
-0.0557333 -0.1064 0.76
-0.0557333 -0.104952 0.76
-0.0558067 -0.103641 0.761
-0.0559533 -0.10246 0.763
-0.0561 -0.101271 0.765
-0.0561 -0.0998143 0.765
-0.0562467 -0.0986143 0.767
-0.05632 -0.09728 0.768
-0.05632 -0.0958171 0.768
-0.0564667 -0.0946 0.77
-0.0564667 -0.0931333 0.77
-0.0564667 -0.0916667 0.77
-0.0564667 -0.0902 0.77
-0.0566133 -0.0889638 0.772
-0.0566133 -0.0874933 0.772
-0.0566867 -0.0861343 0.773
-0.0566867 -0.0846619 0.773
-0.0566867 -0.0831895 0.773
-0.0568333 -0.0819286 0.775
-0.05698 -0.08066 0.777
-0.05698 -0.07918 0.777
-0.0571267 -0.0779 0.779
-0.0571267 -0.0764162 0.779
-0.0572 -0.0750286 0.78
-0.0573467 -0.0737314 0.782
-0.0573467 -0.0722419 0.782
-0.0574933 -0.0709333 0.784
-0.0574933 -0.06944 0.784
-0.05764 -0.06812 0.786
-0.0577867 -0.0667924 0.788
-0.0577867 -0.0652914 0.788
-0.05786 -0.0638714 0.789
-0.0580067 -0.0625267 0.791
-0.0580067 -0.06102 0.791
-0.0581533 -0.0596638 0.793
-0.0581533 -0.0581533 0.793
-0.0583 -0.0567857 0.795
-0.0583 -0.0552714 0.795
-0.0584467 -0.0538924 0.797
-0.05852 -0.05244 0.798
-0.05852 -0.05092 0.798
-0.05852 -0.0494 0.798
-0.0586667 -0.048 0.8
-0.0586667 -0.0464762 0.8
-0.0586667 -0.0449524 0.8
-0.0588133 -0.0435372 0.802
-0.0588133 -0.0420095 0.802
-0.05896 -0.0405829 0.804
-0.0591067 -0.0391486 0.806
-0.0591067 -0.0376133 0.806
-0.0591067 -0.0360781 0.806
-0.0592533 -0.0346286 0.808
-0.0592533 -0.0330895 0.808
-0.0594 -0.0316286 0.81
-0.0594 -0.0300857 0.81
-0.0594 -0.0285429 0.81
-0.0596933 -0.0271333 0.814
-0.0596933 -0.0255829 0.814
-0.0597667 -0.0240619 0.815
-0.0597667 -0.0225095 0.815
-0.0597667 -0.0209571 0.815
-0.0599133 -0.0194524 0.817
-0.0599133 -0.0178962 0.817
-0.06006 -0.01638 0.819
-0.06006 -0.01482 0.819
-0.0602067 -0.0132924 0.821
-0.0530714 -0.261111 0.743
-0.0530714 -0.259696 0.743
-0.0532143 -0.258976 0.745
-0.0532143 -0.257557 0.745
-0.0532143 -0.256138 0.745
-0.0533571 -0.255403 0.747
-0.0532143 -0.2533 0.745
-0.0532143 -0.251881 0.745
-0.0532143 -0.250462 0.745
-0.0532143 -0.249043 0.745
-0.0532143 -0.247624 0.745
-0.0530714 -0.245544 0.743
-0.0532143 -0.244786 0.745
-0.0532143 -0.243367 0.745
-0.0533571 -0.242597 0.747
-0.0533571 -0.241174 0.747
-0.0534286 -0.240072 0.748
-0.0534286 -0.238648 0.748
-0.0535714 -0.237857 0.75
-0.0535714 -0.236429 0.75
-0.0535714 -0.235 0.75
-0.0535714 -0.233571 0.75
-0.0535714 -0.232143 0.75
-0.0535714 -0.230714 0.75
-0.0535714 -0.229286 0.75
-0.0535714 -0.227857 0.75
-0.0534286 -0.225825 0.748
-0.0533571 -0.2241 0.747
-0.0532143 -0.222081 0.745
-0.0530714 -0.220069 0.743
-0.0530714 -0.218654 0.743
-0.053 -0.216947 0.742
-0.0528571 -0.214952 0.74
-0.0527857 -0.213254 0.739
-0.0527857 -0.211847 0.739
-0.0526429 -0.20987 0.737
-0.0526429 -0.208466 0.737
-0.0525714 -0.206781 0.736
-0.0522857 -0.204263 0.732
-0.0522143 -0.202591 0.731
-0.0520714 -0.200649 0.729
-0.0520714 -0.19926 0.729
-0.0520714 -0.197871 0.729
-0.052 -0.196213 0.728
-0.052 -0.194827 0.728
-0.0518571 -0.192909 0.726
-0.0518571 -0.191526 0.726
-0.0518571 -0.190143 0.726
-0.0518571 -0.18876 0.726
-0.0517857 -0.187119 0.725
-0.0517857 -0.185738 0.725
-0.0516429 -0.183849 0.723
-0.0516429 -0.182471 0.723
-0.0516429 -0.181094 0.723
-0.0516429 -0.179717 0.723
-0.0516429 -0.17834 0.723
-0.0516429 -0.176963 0.723
-0.0516429 -0.175586 0.723
-0.0516429 -0.174209 0.723
-0.0517857 -0.17331 0.725
-0.0517857 -0.171929 0.725
-0.0517857 -0.170548 0.725
-0.0517857 -0.169167 0.725
-0.0518571 -0.168017 0.726
-0.0518571 -0.166634 0.726
-0.0518571 -0.165251 0.726
-0.0518571 -0.163869 0.726
-0.052 -0.162933 0.728
-0.052 -0.161547 0.728
-0.0520714 -0.16038 0.729
-0.0522143 -0.159428 0.731
-0.0522143 -0.158035 0.731
-0.0522143 -0.156643 0.731
-0.0522143 -0.155251 0.731
-0.0522857 -0.154069 0.732
-0.0522857 -0.152674 0.732
-0.0522857 -0.15128 0.732
-0.0522857 -0.149886 0.732
-0.0524286 -0.148897 0.734
-0.0525714 -0.147901 0.736
-0.0525714 -0.146499 0.736
-0.0525714 -0.145097 0.736
-0.0526429 -0.143891 0.737
-0.0527857 -0.142873 0.739
-0.0527857 -0.141466 0.739
-0.0527857 -0.140058 0.739
-0.0528571 -0.138838 0.74
-0.0528571 -0.137429 0.74
-0.053 -0.136387 0.742
-0.0530714 -0.135155 0.743
-0.053 -0.13356 0.742
-0.0532143 -0.132681 0.745
-0.0532143 -0.131262 0.745
-0.0533571 -0.130191 0.747
-0.0532143 -0.128424 0.745
-0.0533571 -0.127346 0.747
-0.0533571 -0.125923 0.747
-0.0534286 -0.124667 0.748
-0.0535714 -0.123571 0.75
-0.0537143 -0.122469 0.752
-0.0537143 -0.121036 0.752
-0.0537143 -0.119604 0.752
-0.0537143 -0.118171 0.752
-0.0539286 -0.117205 0.755
-0.054 -0.11592 0.756
-0.054 -0.11448 0.756
-0.054 -0.11304 0.756
-0.0541429 -0.111895 0.758
-0.0542857 -0.110743 0.76
-0.0542857 -0.109295 0.76
-0.0543571 -0.107989 0.761
-0.0543571 -0.10654 0.761
-0.0545 -0.105367 0.763
-0.0545 -0.103913 0.763
-0.0546429 -0.102729 0.765
-0.0547857 -0.101536 0.767
-0.0547857 -0.100075 0.767
-0.0548571 -0.0987429 0.768
-0.0548571 -0.09728 0.768
-0.055 -0.0960667 0.77
-0.055 -0.0946 0.77
-0.055 -0.0931333 0.77
-0.0551429 -0.0919048 0.772
-0.0551429 -0.0904343 0.772
-0.0551429 -0.0889638 0.772
-0.0552143 -0.0876067 0.773
-0.0552143 -0.0861343 0.773
-0.0553572 -0.084881 0.775
-0.0555 -0.08362 0.777
-0.0555 -0.08214 0.777
-0.0555 -0.08066 0.777
-0.0556429 -0.0793838 0.779
-0.0556429 -0.0779 0.779
-0.0557143 -0.0765143 0.78
-0.0557143 -0.0750286 0.78
-0.0558572 -0.0737314 0.782
-0.056 -0.0724267 0.784
-0.056 -0.0709333 0.784
-0.0561429 -0.0696171 0.786
-0.0561429 -0.06812 0.786
-0.0562857 -0.0667924 0.788
-0.0562857 -0.0652914 0.788
-0.0563571 -0.0638714 0.789
-0.0565 -0.0625267 0.791
-0.0565 -0.06102 0.791
-0.0566429 -0.0596638 0.793
-0.0567857 -0.0583 0.795
-0.0567857 -0.0567857 0.795
-0.0569286 -0.0554105 0.797
-0.0569286 -0.0538924 0.797
-0.057 -0.05244 0.798
-0.057 -0.05092 0.798
-0.057 -0.0494 0.798
-0.0571429 -0.048 0.8
-0.0571429 -0.0464762 0.8
-0.0571429 -0.0449524 0.8
-0.0572857 -0.0435372 0.802
-0.0574286 -0.0421143 0.804
-0.0574286 -0.0405829 0.804
-0.0575714 -0.0391486 0.806
-0.0575714 -0.0376133 0.806
-0.0577143 -0.0361676 0.808
-0.0577143 -0.0346286 0.808
-0.0578571 -0.0331714 0.81
-0.0578571 -0.0316286 0.81
-0.0578571 -0.0300857 0.81
-0.058 -0.0286133 0.812
-0.0581429 -0.0271333 0.814
-0.0582143 -0.0256143 0.815
-0.0582143 -0.0240619 0.815
-0.0582143 -0.0225095 0.815
-0.0583571 -0.0210086 0.817
-0.0583571 -0.0194524 0.817
-0.0585 -0.01794 0.819
-0.0586429 -0.01642 0.821
-0.0586429 -0.0148562 0.821
-0.0587857 -0.0133248 0.823
-0.0516562 -0.261111 0.743
-0.0517952 -0.260395 0.745
-0.0517952 -0.258976 0.745
-0.0517952 -0.257557 0.745
-0.0520038 -0.25717 0.748
-0.0520038 -0.255745 0.748
-0.0517952 -0.2533 0.745
-0.0517952 -0.251881 0.745
-0.0517952 -0.250462 0.745
-0.0517952 -0.249043 0.745
-0.0517952 -0.247624 0.745
-0.0517952 -0.246205 0.745
-0.0517952 -0.244786 0.745
-0.0519343 -0.24402 0.747
-0.0520038 -0.242922 0.748
-0.0520038 -0.241497 0.748
-0.0521429 -0.240714 0.75
-0.0521429 -0.239286 0.75
-0.0521429 -0.237857 0.75
-0.0522819 -0.237059 0.752
-0.0522819 -0.235627 0.752
-0.0522819 -0.234194 0.752
-0.0522819 -0.232762 0.752
-0.0522819 -0.23133 0.752
-0.0521429 -0.229286 0.75
-0.0521429 -0.227857 0.75
-0.0520038 -0.225825 0.748
-0.0517952 -0.2235 0.745
-0.0517952 -0.222081 0.745
-0.0516562 -0.220069 0.743
-0.0516562 -0.218654 0.743
-0.0515867 -0.216947 0.742
-0.0514476 -0.214952 0.74
-0.0514476 -0.213543 0.74
-0.0513781 -0.211847 0.739
-0.0512391 -0.20987 0.737
-0.0512391 -0.208466 0.737
-0.0511695 -0.206781 0.736
-0.0510305 -0.204821 0.734
-0.0508914 -0.202869 0.732
-0.0506829 -0.200649 0.729
-0.0506829 -0.19926 0.729
-0.0506829 -0.197871 0.729
-0.0506829 -0.196483 0.729
-0.0506133 -0.194827 0.728
-0.0506133 -0.19344 0.728
-0.0504743 -0.191526 0.726
-0.0504743 -0.190143 0.726
-0.0504743 -0.18876 0.726
-0.0504048 -0.187119 0.725
-0.0504048 -0.185738 0.725
-0.0504048 -0.184357 0.725
-0.0504048 -0.182976 0.725
-0.0502657 -0.181094 0.723
-0.0502657 -0.179717 0.723
-0.0502657 -0.17834 0.723
-0.0502657 -0.176963 0.723
-0.0504048 -0.176071 0.725
-0.0504048 -0.17469 0.725
-0.0504048 -0.17331 0.725
