0.000820952 -0.0385848 0.862
0.00735429 -0.0482114 0.858
0.000799048 -0.066321 0.839
0.00078 -0.0975 0.819
0.00230857 -0.119276 0.808
0.00692572 -0.125432 0.808
0.00076 -0.12996 0.798
0.00684 -0.13756 0.798
0.00826572 -0.149534 0.789
0.00976857 -0.154043 0.789
0.000741905 -0.158026 0.779
0.00519333 -0.168412 0.779
0.00365714 -0.177737 0.768
0.00803524 -0.184811 0.767
0.00216571 -0.199968 0.758
-0.000820952 -0.0402267 0.862
-0.000773333 -0.110587 0.812
-0.000742857 -0.153771 0.78
-0.000733333 -0.172333 0.77
-0.000765714 -0.120217 0.804
-0.000820952 -0.0385848 0.862
-0.000809524 -0.0542381 0.85
-0.000728571 -0.181414 0.765
-0.00572 -0.0384057 0.858
-0.000817143 -0.0433086 0.858
-0.00726857 -0.0492648 0.848
-0.00078 -0.09906 0.819
-0.00078 -0.10062 0.819
-0.000759048 -0.134351 0.797
-0.0105238 -0.0412857 0.85
-0.0100286 -0.101057 0.81
-0.00692572 -0.108503 0.808
-0.000769524 -0.11312 0.808
-0.00532 -0.11932 0.798
-0.00076 -0.12692 0.798
-0.00976857 -0.129997 0.789
-0.00375714 -0.139014 0.789
-0.00225429 -0.143523 0.789
-0.00667714 -0.149123 0.779
-0.000741905 -0.156542 0.779
-0.000738095 -0.160167 0.775
-0.00658286 -0.16896 0.768
-0.000731429 -0.174811 0.768
-0.00649714 -0.179754 0.758
-0.000721905 -0.189861 0.758
-0.00072 -0.19944 0.756
-0.00790952 -0.209243 0.755
-0.0114571 -0.110752 0.802
-0.0100905 -0.0908143 0.815
-0.0113286 -0.123104 0.793
-0.0112 -0.14112 0.784
-0.0110286 -0.155135 0.772
-0.0100038 -0.103886 0.808
-0.0112286 -0.133994 0.786
-0.0192381 -0.0884952 0.808
-0.0115429 -0.0992686 0.808
-0.01444 -0.10868 0.798
-0.0114 -0.11172 0.798
-0.01578 -0.119477 0.789
-0.0112714 -0.128494 0.789
-0.0208286 -0.0825429 0.81
-0.01558 -0.138736 0.779
-0.0140962 -0.143188 0.779
-0.0182857 -0.149943 0.768
-0.0124343 -0.15872 0.768
-0.01526 -0.2289 0.763
-0.02016 -0.121707 0.784
-0.0213219 -0.14043 0.772
-0.0210181 -0.22975 0.761
-0.0206743 -0.09112 0.804
-0.0207695 -0.174034 0.752
-0.0201905 -0.0331124 0.848
-0.02106 -0.07098 0.819
-0.0211286 -0.150814 0.765
-0.023421 -0.0298819 0.848
-0.0295648 -0.0295648 0.839
-0.0263686 -0.0375552 0.839
-0.0273 -0.0585 0.819
-0.02262 -0.06786 0.819
-0.020659 -0.181657 0.748
-0.0308657 -0.0403629 0.831
-0.0299371 -0.0698533 0.806
-0.0238552 -0.079261 0.808
-0.0223162 -0.0838781 0.808
-0.0204943 -0.100953 0.797
-0.0217914 -0.108957 0.789
-0.0202886 -0.11046 0.789
-0.0259667 -0.119447 0.779
-0.0215152 -0.129833 0.779
-0.0200314 -0.132801 0.779
-0.032839 -0.0248295 0.841
-0.0304571 -0.110686 0.78
-0.0241371 -0.139703 0.768
-0.0212114 -0.142629 0.768
-0.0295981 -0.149434 0.758
-0.0223791 -0.159541 0.758
-0.0209352 -0.160985 0.758
-0.0263581 -0.168834 0.748
-0.0220838 -0.178808 0.748
-0.0288562 -0.179471 0.739
-0.0274486 -0.189325 0.739
-0.0288562 -0.197771 0.739
-0.0238229 -0.228844 0.758
-0.0295981 -0.230288 0.758
0.000807619 -0.0589562 0.848
-0.0241057 -0.238866 0.767
0.00565333 -0.0654171 0.848
-0.0241371 -0.246491 0.768
0.00239714 -0.0743114 0.839
-0.0295981 -0.259164 0.758
-0.0311238 -0.144038 0.76
-0.0310886 -0.0310886 0.837
-0.0316152 -0.134549 0.772
-0.0303867 -0.170307 0.742
-0.000793333 -0.0801267 0.833
-0.0324857 -0.260608 0.758
-0.0327 -0.2507 0.763
-0.0307695 -0.101314 0.788
-0.0314724 -0.0729238 0.806
-0.0316152 -0.128667 0.772
-0.03096 -0.15048 0.756
-0.0040381 -0.0557257 0.848
-0.0327 -0.239073 0.763
-0.000804762 -0.0603571 0.845
-0.0313286 -0.245529 0.765
-0.0304181 -0.114995 0.779
-0.0306324 -0.161711 0.748
-0.03584 -0.128 0.768
-0.0329143 -0.130926 0.768
-0.0310419 -0.146547 0.758
-0.0320571 -0.158861 0.748
-0.00878952 -0.0599286 0.839
-0.0397048 -0.238951 0.758
-0.000799048 -0.0679191 0.839
-0.0368171 -0.249057 0.758
-0.000797143 -0.07254 0.837
-0.0324857 -0.259164 0.758
-0.0302638 -0.179471 0.739
-0.0315429 -0.189958 0.736
-0.0316714 -0.199178 0.739
-0.0373019 -0.203401 0.739
-0.04974 -0.0197381 0.829
-0.0416933 -0.20988 0.742
-0.04848 -0.04848 0.808
-0.0494 -0.05852 0.798
-0.04484 -0.06764 0.798
-0.04734 -0.0773972 0.789
-0.0504733 -0.07006 0.791
-0.0497076 -0.0897705 0.779
-0.0510714 -0.0212143 0.825
-0.0512571 -0.0839429 0.78
-0.0469238 -0.119114 0.758
-0.0419743 -0.219831 0.747
-0.0491543 -0.225825 0.748
-0.0520667 -0.100467 0.77
-0.00938476 -0.218737 0.758
-0.0471552 -0.149911 0.739
-0.0412438 -0.199229 0.734
-0.0471552 -0.209031 0.739
-0.0499705 -0.211847 0.739
-0.0501733 -0.14204 0.742
-0.0508219 -0.16082 0.731
-0.0542857 -0.110743 0.76
-0.0517952 -0.260395 0.745
-0.05538 -0.02106 0.819
-0.05852 -0.0494 0.798
-0.0509286 -0.0922619 0.775
-0.0537143 -0.122469 0.752
-0.0609429 -0.0300857 0.81
-0.05852 -0.05244 0.798
-0.0507286 -0.0628429 0.795
-0.0593629 -0.0638714 0.789
-0.0503457 -0.0728886 0.789
-0.0215743 -0.0423495 0.839
-0.0508495 -0.229897 0.752
-0.0556429 -0.0793838 0.779
-0.0511914 -0.0882867 0.779
-0.0592457 -0.0899657 0.768
-0.0548571 -0.0987429 0.768
-0.0519314 -0.103131 0.768
-0.0570305 -0.109008 0.758
-0.0512552 -0.114783 0.758
-0.0591276 -0.118968 0.748
-0.050579 -0.133215 0.748
-0.0504048 -0.176071 0.725
-0.0520038 -0.128941 0.748
-0.0164724 -0.209844 0.752
-0.0556009 -0.138651 0.739
-0.05346 -0.158991 0.729
-0.10976 -0.144107 0.784
-0.0540467 -0.20987 0.737
-0.0598238 -0.21607 0.739
-0.0530714 -0.218654 0.743
-0.0506829 -0.161769 0.729
-0.0974657 -0.199911 0.747
-0.069759 -0.0148924 0.823
-0.0675286 -0.0209571 0.815
-0.0922133 -0.219787 0.728
-0.0684876 -0.0300114 0.808
-0.0908267 -0.223947 0.728
-0.0695067 -0.0404819 0.802
-0.06004 -0.05244 0.798
-0.0623686 -0.0608657 0.789
-0.0692629 -0.0707524 0.782
-0.0686429 -0.0804524 0.775
-0.129905 -0.0528 0.88
-0.0601552 -0.100742 0.761
-0.0339495 -0.0371076 0.829
-0.11978 -0.158953 0.791
-0.0600667 -0.219773 0.742
-0.126917 -0.0605552 0.871
-0.0695629 -0.111157 0.753
-0.0690086 -0.121654 0.747
-0.116471 -0.149534 0.789
-0.0608171 -0.209015 0.734
-0.119477 -0.154043 0.789
-0.0696771 -0.218885 0.739
-0.0351 -0.04914 0.819
-0.119477 -0.169071 0.789
-0.0696771 -0.220292 0.739
-0.0307914 -0.0434238 0.829
-0.118572 -0.166908 0.793
-0.0674048 -0.229176 0.745
-0.03042 -0.05538 0.819
-0.1196 -0.173086 0.78
-0.0668619 -0.239999 0.739
-0.0798495 -0.0426381 0.814
-0.0704114 -0.20984 0.732
-0.129471 -0.168843 0.795
-0.0711809 -0.229048 0.74
-0.0308086 -0.0984372 0.789
-0.0894314 -0.0324486 0.831
-0.135334 -0.119506 0.831
-0.0773781 -0.169136 0.719
0.010239 -0.0795495 0.827
-0.101641 -0.129833 0.779
-0.0518571 -0.18876 0.726
-0.04914 -0.03198 0.819
-0.0722962 -0.219696 0.737
0.0102638 -0.0876371 0.829
-0.103125 -0.137252 0.779
-0.05346 -0.19926 0.729
-0.041239 -0.041239 0.817
-0.122483 -0.169071 0.789
-0.0739 -0.228738 0.739
-0.106092 -0.141704 0.779
-0.05346 -0.200649 0.729
-0.0409867 -0.05336 0.812
-0.129832 -0.179364 0.788
-0.0710848 -0.232961 0.739
-0.129503 -0.184897 0.786
-0.0708924 -0.243561 0.737
-0.0790762 -0.179469 0.722
-0.00552667 -0.0797419 0.829
-0.0790762 -0.182219 0.722
-0.0595743 -0.169136 0.719
-0.000789524 -0.0829 0.829
-0.0725 -0.199548 0.725
-0.0582048 -0.178723 0.719
-0.00078381 -0.0932733 0.823
-0.0770657 -0.20898 0.729
-0.0798429 -0.210369 0.729
-0.0431543 -0.108983 0.768
-0.09126 -0.04914 0.819
0.00552667 -0.0923743 0.829
-0.0687343 -0.206203 0.729
-0.0801714 -0.23912 0.732
-0.131333 -0.183867 0.788
-0.08296 -0.243303 0.732
-0.0692143 -0.0954429 0.765
-0.0395743 -0.182597 0.729
-0.0889638 -0.121314 0.772
-0.01658 -0.0592143 0.829
-0.0853971 -0.168711 0.729
0.00866381 -0.0795495 0.827
-0.0611981 -0.189095 0.722
-0.0507 -0.03042 0.819
-0.0803905 -0.218802 0.734
-0.0895238 -0.204114 0.752
0.00394762 -0.0892162 0.829
-0.0698343 -0.199823 0.726
-0.0518133 -0.0409867 0.812
-0.0803905 -0.228589 0.734
-0.0118429 -0.0686886 0.829
-0.0477295 -0.248621 0.748
-0.0881743 -0.17982 0.729
-0.0102638 -0.0702676 0.829
-0.0477295 -0.251471 0.748
-0.0840086 -0.18954 0.729
-0.0600714 -0.160881 0.725
-0.0585 -0.01794 0.819
-0.0891419 -0.193024 0.737
-0.0528981 -0.01658 0.829
-0.0889286 -0.199911 0.747
-0.129313 -0.110273 0.833
-0.0609438 -0.169136 0.719
-0.0873276 -0.198722 0.722
-0.101849 -0.0576352 0.829
-0.10062 -0.06786 0.819
-0.0508495 -0.239924 0.752
-0.0907914 -0.168211 0.739
-0.0292076 -0.215851 0.748
-0.126049 -0.0907229 0.843
-0.0617914 -0.149271 0.729
0.0113 -0.15142 0.791
-0.0791648 -0.0242981 0.823
-0.100446 -0.201604 0.748
-0.0103381 -0.0628238 0.835
-0.04104 -0.24552 0.756
-0.0899314 -0.174983 0.732
-0.0604029 -0.15066 0.729
-0.0408771 -0.251717 0.753
-0.088779 -0.189442 0.734
-0.0609438 -0.174614 0.719
-0.08112 -0.208693 0.728
-0.0677914 -0.189679 0.719
-0.0592533 -0.0346286 0.808
-0.0881743 -0.2187 0.729
-0.069161 -0.193788 0.719
-0.0546362 -0.0407848 0.808
-0.08262 -0.22842 0.729
-0.0527029 -0.0511752 0.802
-0.08262 -0.236751 0.729
0.0123533 -0.191113 0.763
-0.0798 -0.06004 0.798
-0.118611 -0.120162 0.814
-0.0985314 -0.0908933 0.802
-0.0734486 -0.0793838 0.779
-0.02398 -0.26378 0.763
-0.117652 -0.138906 0.797
-0.0401171 -0.163988 0.739
-0.09994 -0.108957 0.789
-0.0793838 -0.0868029 0.779
-0.11932 -0.14364 0.798
-0.0411314 -0.174983 0.732
-0.09994 -0.11046 0.789
-0.0787724 -0.0920238 0.773
-0.0410752 -0.188668 0.731
-0.0988 -0.121086 0.78
-0.0719505 -0.118968 0.748
-0.132119 -0.205929 0.775
0.00697714 -0.120162 0.814
-0.113224 -0.178967 0.767
-0.0960133 -0.14799 0.758
0.00997905 -0.131263 0.806
-0.113339 -0.189861 0.758
-0.0200238 -0.0408486 0.841
-0.0947467 -0.158861 0.748
-0.0798429 -0.161769 0.729
-0.06942 -0.01794 0.819
-0.0936067 -0.190732 0.739
-0.1098 -0.04148 0.854
-0.0338143 -0.08942 0.789
-0.116227 -0.204299 0.758
-0.0884829 -0.0247114 0.837
-0.0696771 -0.131612 0.739
-0.129623 -0.0807086 0.856
-0.108643 -0.0507 0.845
-0.0520038 -0.25717 0.748
-0.0319019 -0.10906 0.779
-0.0887857 -0.0416429 0.825
-0.108687 -0.07378 0.833
-0.0786876 -0.116227 0.758
-0.0392457 -0.0592533 0.808
-0.119447 -0.175831 0.779
-0.0986143 -0.143904 0.767
-0.0796029 -0.121197 0.753
-0.0315505 -0.0684876 0.808
-0.118833 -0.182309 0.775
-0.0995533 -0.15042 0.763
-0.0790743 -0.128941 0.748
-0.119223 -0.18944 0.768
-0.098901 -0.153766 0.758
-0.0363314 -0.218701 0.748
-0.0742886 -0.149271 0.729
-0.0507143 -0.242143 0.75
-0.0964219 -0.179471 0.739
-0.039181 -0.22155 0.748
-0.0784543 -0.158991 0.729
-0.0950143 -0.187917 0.739
-0.0194914 -0.224512 0.758
-0.0510305 -0.151693 0.734
-0.098901 -0.211518 0.758
-0.019 -0.09956 0.798
-0.0991619 -0.214971 0.76
0.00655714 -0.190157 0.765
-0.08588 -0.06916 0.798
-0.1287 -0.1287 0.819
-0.106964 -0.0977295 0.808
-0.0790743 -0.130366 0.748
-0.03268 -0.0798 0.798
-0.119223 -0.190903 0.768
-0.0996829 -0.161357 0.753
-0.132573 -0.0837733 0.854
-0.0753076 -0.138651 0.739
-0.0848867 -0.0198333 0.833
-0.11767 -0.199968 0.758
-0.099021 -0.168834 0.748
-0.0335714 -0.219286 0.75
-0.0795305 -0.144281 0.739
-0.0988886 -0.1743 0.747
-0.099021 -0.201604 0.748
-0.0108286 -0.218737 0.758
-0.0513781 -0.144281 0.739
-0.09864 -0.20808 0.756
-0.06916 -0.04636 0.798
-0.0339295 -0.137884 0.758
-0.0891429 -0.0739048 0.8
-0.108771 -0.101057 0.81
-0.085319 -0.0957057 0.779
-0.0401686 -0.0307171 0.827
-0.123725 -0.157123 0.797
0.0103876 -0.0727133 0.839
-0.105951 -0.128494 0.789
-0.0396 -0.22968 0.756
-0.0792076 -0.154911 0.736
-0.09964 -0.18868 0.742
-0.0760086 -0.177353 0.719
-0.0684876 -0.0284724 0.808
-0.0945952 -0.209214 0.725
0.00506667 -0.201943 0.76
-0.08892 -0.07524 0.798
-0.1287 -0.13182 0.819
0.0105486 -0.0592343 0.852
-0.108503 -0.105425 0.808
-0.0698829 -0.0593629 0.789
-0.0377562 -0.148888 0.748
-0.0898733 -0.0853419 0.793
0.0105486 -0.0608572 0.852
-0.0198514 -0.249246 0.772
-0.109497 -0.114091 0.804
-0.0898114 -0.0652476 0.806
-0.129643 -0.120214 0.825
0.0107591 -0.0455191 0.869
-0.10998 -0.09126 0.819
-0.0945952 -0.235452 0.725
-0.0477295 -0.138914 0.748
-0.09044 -0.07828 0.798
0.00894667 -0.05124 0.854
-0.111581 -0.108503 0.808
-0.08942 -0.0909228 0.789
-0.124501 -0.153526 0.802
-0.0196714 -0.255729 0.765
-0.108544 -0.120689 0.797
-0.0689971 -0.0764162 0.779
-0.0358943 -0.169618 0.739
-0.0886267 -0.100543 0.782
-0.109509 -0.130656 0.793
-0.0897705 -0.107576 0.779
-0.108957 -0.133003 0.789
-0.08704 -0.119223 0.768
-0.0788 -0.0727962 0.788
-0.119276 -0.134667 0.808
-0.00949619 -0.237405 0.767
-0.09956 -0.10108 0.798
-0.0773781 -0.181462 0.719
-0.00702 -0.0897 0.819
-0.0787476 -0.196527 0.719
-0.0713857 -0.0593629 0.789
-0.04488 -0.144613 0.748
-0.095 -0.0874 0.798
0.00730286 -0.0641029 0.852
-0.0212667 -0.2486 0.77
-0.11312 -0.116198 0.808
-0.0479057 -0.167323 0.729
-0.0912543 -0.10906 0.779
0.00396667 -0.0817133 0.833
-0.0295981 -0.262051 0.758
-0.11046 -0.137511 0.789
-0.069101 -0.117543 0.748
-0.124971 -0.0604162 0.869
-0.10868 -0.0367714 0.858
-0.06656 -0.08704 0.768
-0.0890791 -0.11411 0.773
-0.129471 -0.171871 0.795
-0.0743562 -0.109008 0.758
-0.113962 -0.16837 0.772
-0.0987429 -0.13824 0.768
-0.10584 -0.21672 0.756
0.00505333 -0.204299 0.758
-0.0804029 -0.0728886 0.789
-0.04522 -0.0198333 0.833
-0.125432 -0.139284 0.808
-0.0168229 -0.239177 0.768
-0.10412 -0.10868 0.798
-0.0121429 -0.190714 0.75
-0.11956 -0.07076 0.854
-0.01482 -0.07878 0.819
-0.0838743 -0.188888 0.716
-0.0746438 -0.0392457 0.808
-0.10122 -0.219654 0.723
0.00072 -0.21384 0.756
-0.08942 -0.08942 0.789
-0.0405571 -0.0214714 0.835
-0.125432 -0.140823 0.808
-0.0197229 -0.249092 0.767
-0.10868 -0.11932 0.798
-0.01014 -0.08346 0.819
-0.0842257 -0.195157 0.719
-0.079261 -0.0454019 0.808
-0.10108 -0.220726 0.722
-0.0823514 -0.0897705 0.779
-0.048161 -0.0213171 0.829
-0.12084 -0.14972 0.798
0.0103629 -0.0693514 0.837
-0.101314 -0.116324 0.788
-0.0192343 -0.207303 0.748
-0.11991 -0.0812809 0.845
-0.0873505 -0.129221 0.758
-0.0405829 -0.0604914 0.804
-0.126866 -0.189186 0.779
0.01014 -0.10842 0.819
-0.108983 -0.15872 0.768
0.00814 -0.17242 0.777
-0.0808 -0.0469409 0.808
-0.123955 -0.109744 0.829
-0.1053 -0.07878 0.819
-0.0151819 -0.0471438 0.839
-0.0438619 -0.229376 0.755
-0.0865686 -0.159765 0.739
0.0113857 -0.138906 0.797
-0.106145 -0.188781 0.748
-0.130947 -0.0788933 0.854
-0.110644 -0.0492648 0.848
-0.0927705 -0.127833 0.767
0.00547333 -0.105557 0.821
-0.112028 -0.159509 0.779
0.00702 -0.10998 0.819
-0.110446 -0.15872 0.768
0.00976857 -0.161557 0.789
-0.08502 -0.03666 0.819
-0.128647 -0.0934886 0.839
-0.105007 -0.0686886 0.829
-0.0137295 -0.0395733 0.848
-0.0890476 -0.148888 0.748
-0.0993372 -0.0298819 0.848
-0.129463 -0.208457 0.768
0.0100038 -0.125432 0.808
-0.109008 -0.179754 0.758
-0.131233 -0.05842 0.889
-0.0797257 -0.103131 0.768
-0.0492943 -0.197871 0.729
-0.0999 -0.13098 0.777
-0.02052 -0.09804 0.798
-0.109727 -0.214367 0.763
-0.0440362 -0.129221 0.758
-0.0915733 -0.0654095 0.808
-0.134357 -0.120214 0.825
0.00910381 -0.0438638 0.869
-0.11154 -0.0975 0.819
-0.0916819 -0.139328 0.758
-0.130137 -0.19925 0.772
0.00544667 -0.111268 0.817
-0.111909 -0.164571 0.768
-0.083019 -0.119114 0.758
-0.0407848 -0.0577143 0.808
-0.123898 -0.178799 0.779
-0.101669 -0.14848 0.768
-0.0786724 -0.0527029 0.802
-0.0995143 -0.081 0.81
-0.119923 -0.110517 0.823
-0.129167 -0.0491667 0.875
-0.068581 -0.103232 0.758
-0.129609 -0.0510076 0.878
-0.0402286 -0.119223 0.768
-0.09594 -0.0585 0.819
-0.114481 -0.084479 0.829
-0.0768 -0.0987429 0.768
-0.134014 -0.187014 0.795
-0.04374 -0.18954 0.729
-0.0986733 -0.122414 0.779
-0.02812 -0.08892 0.798
-0.109439 -0.209456 0.761
-0.0833486 -0.138914 0.748
-0.04028 -0.07372 0.798
-0.126537 -0.19968 0.768
-0.10612 -0.169648 0.758
-0.119867 -0.130693 0.812
-0.0413286 -0.0819057 0.789
-0.0934886 -0.0295648 0.839
-0.113874 -0.0589562 0.848
-0.0629781 -0.246959 0.743
-0.0408048 -0.0986733 0.779
-0.0907952 -0.0386867 0.829
-0.112666 -0.0695171 0.839
-0.133226 -0.0602486 0.891
-0.0890286 -0.132457 0.76
-0.128514 -0.1924 0.78
-0.0109714 -0.163109 0.768
-0.119729 -0.0487171 0.867
-0.0211114 -0.0695895 0.821
-0.050579 -0.244347 0.748
-0.0393209 -0.0986733 0.779
-0.0892162 -0.0339495 0.829
-0.108948 -0.0628238 0.835
-0.0105733 -0.0366 0.854
-0.09 -0.14328 0.756
0.0100781 -0.120162 0.814
-0.109727 -0.17658 0.763
-0.1298 -0.207533 0.77
-0.0887943 -0.133552 0.758
0.0101152 -0.111268 0.817
-0.108983 -0.160183 0.768
-0.040381 -0.0708571 0.8
-0.12506 -0.19018 0.777
-0.0213171 -0.0513191 0.829
-0.0534286 -0.238648 0.748
0.00979333 -0.15142 0.791
-0.084479 -0.0244752 0.829
-0.10947 -0.0583305 0.839
-0.020659 -0.208728 0.748
-0.125181 -0.0880305 0.848
-0.07524 -0.0494 0.798
-0.0425924 -0.130665 0.758
-0.0977295 -0.079261 0.808
-0.11778 -0.10998 0.819
-0.12166 -0.0488295 0.869
-0.0304943 -0.0539514 0.821
-0.0604714 -0.232637 0.747
-0.0360886 -0.208748 0.743
-0.130555 -0.0889057 0.841
-0.0796381 -0.141657 0.74
-0.03116 -0.08132 0.798
-0.1199 -0.208553 0.763
0.0112714 -0.161557 0.789
-0.07878 -0.03042 0.819
-0.0995438 -0.0603533 0.823
-0.119793 -0.09282 0.833
-0.0841143 -0.108983 0.768
-0.0309648 -0.0913838 0.793
-0.1173 -0.213471 0.765
-0.0984552 -0.0705467 0.814
-0.119218 -0.103428 0.829
-0.0897 -0.04758 0.819
-0.128647 -0.107871 0.839
-0.109744 -0.0797419 0.829
-0.128291 -0.0710914 0.858
-0.0682695 -0.128797 0.739
-0.010499 -0.0460343 0.848
-0.0890476 -0.150312 0.748
-0.0989857 -0.0313857 0.845
-0.12199 -0.21403 0.767
0.0115143 -0.131263 0.806
-0.108576 -0.184795 0.755
-0.0302714 -0.061319 0.815
-0.0654543 -0.242814 0.739
-0.130245 -0.0950867 0.839
0.0113857 -0.140424 0.797
-0.10472 -0.198754 0.748
-0.0795495 -0.0149648 0.827
-0.099881 -0.0439476 0.839
-0.0135352 -0.198754 0.748
-0.11872 -0.0751086 0.848
-0.0884952 -0.0592533 0.808
-0.10998 -0.0897 0.819
-0.128692 -0.112902 0.829
-0.109029 -0.0476495 0.848
-0.0899657 -0.122149 0.768
-0.10906 -0.153574 0.779
-0.0401762 -0.124911 0.767
-0.09906 -0.0663 0.819
-0.117639 -0.0971114 0.829
-0.140083 -0.111591 0.831
-0.00649714 -0.224512 0.758
-0.0415248 -0.159765 0.739
-0.0939286 -0.09994 0.789
0.00240286 -0.0728867 0.841
-0.0211286 -0.255729 0.765
-0.11324 -0.12996 0.798
-0.0103876 -0.0567324 0.839
-0.04392 -0.23976 0.756
-0.0879762 -0.16258 0.739
-0.132786 -0.109214 0.825
-0.12246 -0.11934 0.819
-0.102347 -0.0884952 0.808
-0.0108714 -0.170319 0.761
-0.119452 -0.0502524 0.865
-0.0799333 -0.100467 0.77
-0.0293638 -0.21987 0.752
-0.0664095 -0.140509 0.734
-0.103232 -0.208631 0.758
-0.104183 -0.0395733 0.848
-0.126657 -0.0694571 0.858
-0.0107857 -0.181919 0.755
-0.118486 -0.0612857 0.858
-0.0794143 -0.110014 0.765
-0.0387657 -0.119223 0.768
-0.089481 -0.0505762 0.817
-0.109479 -0.0811248 0.827
0.0112714 -0.154043 0.789
-0.07878 -0.02886 0.819
-0.0403333 -0.1122 0.77
-0.0986905 -0.0513191 0.829
-0.119058 -0.0839 0.839
-0.01516 -0.169648 0.758
-0.115217 -0.0465771 0.858
-0.0809381 -0.149911 0.739
-0.10187 -0.178808 0.748
-0.0796895 -0.0826686 0.782
-0.0311629 -0.0295648 0.839
-0.119619 -0.142476 0.8
0.0138067 -0.18966 0.763
-0.07676 -0.05244 0.798
-0.0408229 -0.141089 0.752
-0.0992686 -0.082339 0.808
-0.11934 -0.11622 0.819
-0.123315 -0.0554505 0.869
-0.0108286 -0.175423 0.758
-0.118486 -0.0596514 0.858
-0.138167 -0.117639 0.829
-0.0228962 -0.04974 0.829
-0.0577029 -0.228674 0.748
0.00834952 -0.140424 0.797
-0.081321 -0.01658 0.829
-0.103077 -0.0487419 0.839
-0.0205762 -0.199376 0.745
-0.120335 -0.0799543 0.848
-0.100345 -0.159541 0.758
-0.0789 -0.0698829 0.789
-0.00944667 -0.2289 0.763
-0.0403343 -0.152138 0.743
-0.096399 -0.0903267 0.797
-0.116198 -0.128511 0.808
-0.0104371 -0.0521857 0.843
-0.0898676 -0.162045 0.743
-0.109723 -0.198649 0.753
-0.04256 -0.0903467 0.784
-0.099881 -0.0391533 0.839
-0.0135352 -0.188781 0.748
-0.115489 -0.0654171 0.848
-0.110314 -0.0384057 0.858
-0.0724114 -0.0899657 0.768
-0.0423514 -0.17982 0.729
-0.0957057 -0.119447 0.779
0.0112714 -0.149534 0.789
-0.07254 -0.0195 0.819
-0.0407 -0.10138 0.777
-0.0971114 -0.04974 0.829
-0.11746 -0.0791057 0.839
