# .PCD v0.7 - Point Cloud Data file format
VERSION 0.7
FIELDS x y z
SIZE 4 4 4
TYPE F F F
COUNT 1 1 1
WIDTH 1351
HEIGHT 1
VIEWPOINT 0 0 0 1 0 0 0
POINTS 1351
DATA ascii
0.085700393 0.097933769 0.73603034
0.083949059 0.099041611 0.73317432
0.051225781 0.060971528 0.72724122
0.048070729 0.055092961 0.72432548
0.097311288 0.11738563 0.73389137
0.081925064 0.10076368 0.72873342
0.080678523 0.095025212 0.72816026
0.066095054 0.079649389 0.72803438
0.043971688 0.054129928 0.7204864
0.097767949 0.11851037 0.72936755
0.079997689 0.09999153 0.72434962
0.064306676 0.083564937 0.72287643
0.043702245 0.060058773 0.71968573
0.042207181 0.057714581 0.71833348
0.091570765 0.12248278 0.725106
0.087556332 0.11918795 0.72352105
0.084862858 0.11395621 0.72566152
0.082675219 0.10928363 0.72460008
0.081439674 0.10662773 0.72083294
0.063824177 0.086927056 0.71618962
0.040563792 0.063004702 0.71512389
0.039339602 0.055705726 0.71491957
0.088900149 0.12491766 0.72108257
0.086977541 0.12094086 0.72182381
0.083941221 0.11567339 0.71997368
0.083187878 0.11190394 0.71965468
0.058189481 0.08990854 0.71477467
0.038665205 0.065255135 0.71176779
0.03756237 0.060325205 0.71151733
0.033710688 0.055478722 0.70695913
0.088694543 0.12735027 0.71472335
0.07952705 0.11753228 0.71676791
0.061658204 0.090246856 0.71098125
0.035329312 0.061582267 0.70762539
0.086370558 0.12903258 0.7138772
0.07265985 0.10992274 0.71000147
0.057016611 0.09369573 0.70567465
0.055785298 0.092587739 0.71024811
0.035643756 0.069972694 0.70487785
0.033138603 0.062673807 0.70339131
0.084087938 0.13106403 0.70971793
0.070055604 0.11478877 0.70707768
0.067725867 0.11059219 0.70370317
0.055000931 0.09494859 0.70087963
0.03411594 0.070407152 0.70163822
0.030824423 0.062556356 0.69876313
0.082099378 0.13285762 0.70287049
0.079868644 0.13294929 0.70588398
0.068229377 0.12031204 0.70352244
0.065712661 0.11166593 0.70006186
0.050169736 0.096145213 0.70048535
0.033965111 0.077795863 0.69621712
0.031954169 0.070624501 0.6964426
0.030922949 0.071125507 0.69332325
0.080344558 0.133973 0.69977385
0.077811778 0.13550094 0.70025527
0.067859918 0.12548134 0.69870305
0.067963988 0.12271255 0.70175087
0.066053301 0.11815625 0.69787931
0.049880236 0.097578108 0.69349158
0.034829348 0.083261251 0.69327736
0.031961828 0.077259153 0.69050872
0.07791844 0.13667119 0.69676006
0.074780494 0.13794094 0.69682443
0.069830507 0.13089457 0.69486785
0.068926603 0.128838 0.69715083
0.066357911 0.12116155 0.69361258
0.043486357 0.098101586 0.69180679
0.040524662 0.096086025 0.69133735
0.038008273 0.091924816 0.69005591
0.03378427 0.083139807 0.68914223
0.076416254 0.13896984 0.69304669
0.074004769 0.13768789 0.69594765
0.071692854 0.13338596 0.69222713
0.042567253 0.098487258 0.68634737
0.039027154 0.095025897 0.6833818
0.035398483 0.087995112 0.68468416
0.10834455 0.10349441 0.74819422
0.10899717 0.097953469 0.7485919
0.10294825 0.096572936 0.74713922
0.077271402 0.062559992 0.73975092
0.074289143 0.059345454 0.74003798
0.10878623 0.10609537 0.74471396
0.099026293 0.093623996 0.74511039
0.096902817 0.087610245 0.74257696
0.093452036 0.088319927 0.74128926
0.073120385 0.065661341 0.73906642
0.070952773 0.061867923 0.73963571
0.065664768 0.058048099 0.73652589
0.066122413 0.05376932 0.73549825
0.089655817 0.088097692 0.73879564
0.075528264 0.070061535 0.73449469
0.061269492 0.054320812 0.73347288
0.05590266 0.047199488 0.72883046
0.10358626 0.11115777 0.73859322
0.087208658 0.090763152 0.73741204
0.083064705 0.083841771 0.7324031
0.051378369 0.049809217 0.72648048
0.10032853 0.11464354 0.73321301
0.10136527 0.11056107 0.73208737
0.081715733 0.090497851 0.7308563
0.081163347 0.087505341 0.73052835
0.076981008 0.081276655 0.72732913
0.073252946 0.078747332 0.72599435
0.072286546 0.075573802 0.72986603
0.048799723 0.051749408 0.72476447
0.044154108 0.041634142 0.72067499
0.099118531 0.11651787 0.72943723
0.079254597 0.091901064 0.72647929
0.075615287 0.084724158 0.72456479
0.071108818 0.080902725 0.72320044
0.04425934 0.047564566 0.7208457
0.040944785 0.042514294 0.71798396
0.097396135 0.11973932 0.72553432
0.078465074 0.096117377 0.72239524
0.076004326 0.090772152 0.72114527
0.073617458 0.086080343 0.72066259
0.068357587 0.083292693 0.71969086
0.039296895 0.048285455 0.71582532
0.036263347 0.043635011 0.71310306
0.035612732 0.03758952 0.7134316
0.096199006 0.12119702 0.72117078
0.078925371 0.099843264 0.71977335
0.076904297 0.095101893 0.71860015
0.074597508 0.090719938 0.71794152
0.072394192 0.088421851 0.71565717
0.06879437 0.085346639 0.71603501
0.035362452 0.049374431 0.71091938
0.031702608 0.044500351 0.70732284
0.030622125 0.038439006 0.70788419
0.094042331 0.1232518 0.71803975
0.081035376 0.10859156 0.71690446
0.079259396 0.10388386 0.71557748
0.077312708 0.10018057 0.7133677
0.068012655 0.08807233 0.71106207
0.034528047 0.052180678 0.70912349
0.027338326 0.0401977 0.7030825
0.092518628 0.12348762 0.71357441
0.075548679 0.10649544 0.71241307
0.072737962 0.099750698 0.70922375
0.030502021 0.049376518 0.7039898
0.026822329 0.04467386 0.70009589
0.088801414 0.12766501 0.71119237
0.071509838 0.10463551 0.70843351
0.069332391 0.099314779 0.70604497
0.063453078 0.092567176 0.70422018
0.029365063 0.055083334 0.69956207
0.025284052 0.048075736 0.69544578
0.087005645 0.12784773 0.70632923
0.086814374 0.12776244 0.7043128
0.068634182 0.10730514 0.70485502
0.066629559 0.100793 0.7023325
0.060306698 0.094030231 0.69993961
0.026432961 0.055828482 0.69293809
0.083851635 0.13155946 0.70108843
0.085703015 0.12885845 0.70290565
0.064119339 0.10595372 0.69805062
0.062800407 0.10091257 0.69668472
0.057968706 0.096129209 0.69504482
0.054893315 0.096361399 0.69522154
0.02842322 0.064242244 0.69175255
0.02447328 0.056183577 0.687464
0.084125578 0.13369474 0.69556731
0.064366817 0.11359781 0.69522679
0.062139839 0.10867804 0.69205916
0.055890352 0.097426981 0.6913619
0.029813051 0.072677195 0.68745768
0.026399136 0.063468516 0.68575168
0.080907047 0.13562095 0.69331127
0.064756751 0.11644909 0.69249141
0.064315051 0.11548448 0.68785584
0.062196076 0.11044163 0.68859029
0.05152607 0.098330975 0.68881047
0.033008814 0.082360387 0.68537557
0.028878331 0.071680218 0.68352902
0.08018595 0.13957167 0.68956447
0.074781775 0.13621444 0.68890631
0.069214076 0.12728667 0.68839025
0.068022519 0.12551484 0.69126147
0.066506356 0.12010795 0.68724924
0.047026634 0.099760354 0.68145514
0.032591283 0.081611454 0.68176842
0.078039795 0.13848841 0.68675369
0.070097893 0.12731016 0.68520683
0.043759316 0.09923479 0.67889899
0.040958524 0.097192407 0.67781091
0.037995607 0.09286046 0.67937219
0.035067677 0.087114334 0.67878294
0.11409849 0.095769346 0.74818146
0.1102342 0.091727227 0.74685746
0.11384094 0.10169855 0.7461617
0.10497665 0.090291411 0.74554813
0.098421842 0.084180415 0.74176884
0.081977487 0.063263834 0.73697829
0.080068946 0.059217066 0.74009234
0.077890486 0.05383569 0.73895025
0.071604908 0.055342555 0.73793042
0.11287519 0.1033988 0.7432971
0.092840761 0.080980241 0.73839498
0.078239679 0.065769792 0.73674166
0.062129617 0.047234505 0.73170841
0.10883486 0.10521582 0.74028879
0.10698152 0.10467383 0.73767382
0.086404473 0.080530971 0.73431933
0.082439929 0.074910015 0.73073471
0.079973459 0.068659484 0.73275727
0.056839436 0.043243647 0.72833073
0.053333938 0.037986159 0.72546554
0.10536206 0.10639945 0.734007
0.077803254 0.074862182 0.72892094
0.05007261 0.040702432 0.72448242
0.04731968 0.034811646 0.72225952
0.042145908 0.03102383 0.71916735
0.10267714 0.10905159 0.73099512
0.078036219 0.078314751 0.72853482
0.045330584 0.03784126 0.7213707
0.040378958 0.034021139 0.71797031
0.036668241 0.025560349 0.71575582
0.10092032 0.11186886 0.72667497
0.037563831 0.035566449 0.71556443
0.034423381 0.029114664 0.71383405
0.030279011 0.024330676 0.71140218
0.026037693 0.018515199 0.70925605
0.098437697 0.11550438 0.7224555
0.099177331 0.11456564 0.72139889
0.031300128 0.03117615 0.71054268
0.024405181 0.025388151 0.7060746
0.023667127 0.021562994 0.70666879
0.019346029 0.017422974 0.70448565
0.016958356 0.013475239 0.70362318
-0.00035399199 -0.0085480511 0.69971317
0.096667051 0.11885935 0.71763217
0.028198183 0.032115191 0.70733213
0.023508579 0.030429244 0.70298606
0.021675974 0.025500923 0.70342028
0.016910344 0.019194037 0.70161152
0.0089970231 0.0072734952 0.69833136
0.0030185878 0.00022211671 0.69705868
-0.0021812916 -0.0059299916 0.69711131
-0.0039011538 -0.009027645 0.69752705
-0.0071557462 -0.0098017752 0.69501257
-0.013196975 -0.019233584 0.69485903
-0.018379986 -0.023959041 0.69435549
-0.022319108 -0.029203832 0.69304347
-0.025871962 -0.032350838 0.69127762
0.096733302 0.11788404 0.71562481
0.076000184 0.096687406 0.71278214
0.07381174 0.092990696 0.71145737
0.070085794 0.090189278 0.70928299
0.025459081 0.034799784 0.70325309
0.021434933 0.031020612 0.7000649
0.017629772 0.024222225 0.6997962
0.012126774 0.016549885 0.69796693
0.0069749653 0.011744887 0.69453979
0.0040276051 0.0067017227 0.69567227
-0.00053098798 0.001790911 0.69331527
-0.0031186044 -0.0011384189 0.69316775
-0.0063043833 -0.0048583001 0.69408774
-0.010233194 -0.0096037239 0.69213128
-0.011677086 -0.012642935 0.69254953
-0.015973389 -0.017907441 0.69295824
-0.018477678 -0.020115778 0.69184375
-0.022504091 -0.025426582 0.69166625
-0.028578907 -0.031444609 0.68875402
-0.030905873 -0.035335153 0.68684572
0.092846155 0.12205401 0.71024239
0.0689345 0.094190747 0.70619953
0.065725058 0.091965348 0.70524955
0.023422748 0.038937896 0.69781518
0.020221472 0.033284009 0.69680035
0.015599668 0.026133388 0.69614249
0.0093950629 0.020237029 0.69283628
0.00017413497 0.0083042979 0.69130719
-0.0090670586 -0.0042983294 0.69058299
-0.011394143 -0.0084723234 0.68908978
-0.015263289 -0.012536228 0.68883359
-0.020517081 -0.016487509 0.68846822
-0.024840862 -0.021337628 0.68798399
-0.029182374 -0.027249247 0.68615866
-0.030245841 -0.030959949 0.6856612
-0.060845912 -0.06670031 0.67714578
0.094505668 0.12155795 0.70731586
0.065990865 0.094673514 0.70351684
0.02186507 0.042060077 0.69295299
0.018519193 0.037003607 0.69104147
0.014467835 0.030666292 0.69067484
0.011777967 0.027531087 0.68986869
0.0085294843 0.024401605 0.68806171
0.0051724315 0.017988026 0.68862623
0.0010309815 0.013669968 0.68935418
-0.0026019514 0.010712206 0.68727052
-0.0041924119 0.0053359419 0.68780589
-0.0073164999 0.0034035444 0.6874789
-0.010037899 0.00066119432 0.68645382
-0.012714773 -0.0056124032 0.68674028
-0.017446488 -0.0099771917 0.68406999
-0.020119399 -0.012778983 0.68500328
-0.023391366 -0.016251743 0.68551391
-0.026589274 -0.018513963 0.68353283
-0.030895948 -0.024250656 0.68271005
-0.03379494 -0.028415978 0.68045199
-0.035115242 -0.034288988 0.68096888
-0.062876165 -0.06604892 0.67462933
0.021981776 0.047317833 0.68884331
0.018883526 0.041729987 0.68722028
0.0047153533 0.02323398 0.68305284
0.0032681525 0.021553248 0.68343186
0.0012918413 0.017216235 0.68652147
-0.0037706494 0.013624787 0.68330562
-0.0054759979 0.0074393451 0.68463504
-0.010280669 0.0048183352 0.68305892
-0.014034212 -0.0028436482 0.68162274
-0.020597696 -0.0090192556 0.6811651
-0.025884986 -0.014420301 0.68072391
-0.031154692 -0.018471867 0.67686617
-0.030786306 -0.02101016 0.67949229
-0.036021918 -0.027323693 0.67684436
-0.063248038 -0.060512543 0.66978562
0.061502576 0.098485559 0.69599247
0.060648113 0.095974326 0.6969986
0.016425848 0.039661676 0.68446159
0.012902498 0.034205556 0.68416142
0.0086455047 0.029849559 0.68215966
3.3885241e-05 0.020721495 0.68221086
-0.0018491745 0.018013239 0.68288529
-0.0056074858 0.014770567 0.67946541
-0.007296145 0.010153204 0.67925179
-0.011456162 0.0080460608 0.67794383
-0.013320655 0.004803136 0.67809159
-0.023134083 -0.0079177022 0.67668849
-0.027996987 -0.01201579 0.67514324
-0.031960219 -0.016868681 0.67453229
-0.034404516 -0.019692361 0.67324471
-0.036264688 -0.02414833 0.67393374
-0.066294611 -0.060739964 0.66706914
0.085758954 0.13090652 0.69333947
0.06039834 0.10299957 0.69165266
0.057286561 0.098772973 0.68995178
0.024097025 0.057807535 0.68375778
0.021239072 0.05019635 0.68338913
0.019544035 0.046775997 0.68268895
-0.00010532141 0.024414212 0.67727047
-0.0033310652 0.020259023 0.67699111
-0.011704892 0.0092902482 0.67502594
-0.028175235 -0.009198308 0.67146897
-0.031558573 -0.012858838 0.67029154
-0.033614963 -0.016702086 0.67023039
0.085155606 0.13414341 0.69204152
0.06109947 0.1081925 0.68563235
0.058766603 0.10293192 0.68643498
0.055778235 0.099094331 0.6838038
0.025735825 0.063523382 0.68086612
0.022966921 0.056530565 0.67870259
-0.068525851 -0.056065187 0.66085422
0.084027231 0.13718766 0.68678379
0.067839921 0.1208995 0.6831069
0.063771784 0.11322689 0.68373448
0.061330289 0.10811862 0.68215668
0.0533126 0.098926187 0.68219936
0.030779868 0.07680884 0.67712522
0.028214753 0.070698738 0.67987102
0.026814461 0.066426069 0.67614996
0.082216203 0.13954988 0.68447173
0.07716307 0.13453874 0.68091214
0.071922243 0.12950936 0.68374658
0.069612324 0.12215909 0.67996991
0.051125199 0.099408418 0.67642689
0.036135226 0.088367999 0.67552465
0.033181727 0.080814421 0.672032
0.046084136 0.099626839 0.67332488
0.042225569 0.0971075 0.67279458
0.038656354 0.092322379 0.67421937
0.035983235 0.086372912 0.67164946
0.11700016 0.098597318 0.74714565
0.11567888 0.091709405 0.74705839
0.10977376 0.085882038 0.74424559
0.083782971 0.055770665 0.73937047
0.080596238 0.05130887 0.73811913
0.11810124 0.099755853 0.7431103
0.10188642 0.080091566 0.7405566
0.096873552 0.076851249 0.73786151
0.08461684 0.060179174 0.7373358
0.074190021 0.049662918 0.73620737
0.070448756 0.045378566 0.73340845
0.11323786 0.099922687 0.73722768
0.092766702 0.074659586 0.73525828
0.083474338 0.06410262 0.73489338
0.064436585 0.041144282 0.73012996
0.058654755 0.032853067 0.72542048
0.11022228 0.10203135 0.73691082
0.08412087 0.069500685 0.73052377
0.056969553 0.036133975 0.7262454
0.053730369 0.031545073 0.72400582
0.047770888 0.029075861 0.721591
0.047774583 0.024625599 0.72080505
0.10782641 0.10489687 0.73217523
0.04256466 0.02730599 0.71912873
0.038949132 0.015761077 0.71633005
0.035918832 0.017183095 0.71515566
0.032909542 0.020458013 0.71369183
0.029455304 0.013451755 0.71206599
0.025140107 0.0091726482 0.71028268
0.021597713 0.0054577291 0.70836997
0.023893476 0.0021667629 0.70983696
0.10721183 0.10835874 0.72248471
0.021815449 0.011341393 0.70783639
0.016493559 -0.00018835068 0.70489764
0.012964517 -0.0065885782 0.70432222
0.0093794167 -0.0083525479 0.70225233
0.0028756559 -0.013789907 0.70240235
-0.0068984628 -0.025664419 0.69937843
-0.011066228 -0.028343633 0.69910204
-0.013483107 -0.033302456 0.69828975
-0.015101612 -0.037601739 0.69706661
-0.051641226 -0.07942009 0.68953264
-0.053131223 -0.081141517 0.68961465
0.10444239 0.11108389 0.7205565
0.018284529 0.0089251399 0.70553625
0.012272209 0.0035724342 0.70160472
0.0099215508 -0.0017819703 0.70196533
0.0067734718 -0.00436005 0.70034134
0.0038312972 -0.0076388121 0.6996817
-0.0023517609 -0.0118334 0.6992383
-0.0022518039 -0.017187804 0.69876742
-0.0063116252 -0.019516945 0.69773561
-0.0098114312 -0.023998588 0.69851077
-0.014473975 -0.026535034 0.69667238
-0.01388067 -0.030101746 0.69809687
-0.018589526 -0.032990709 0.6951412
-0.019801378 -0.039145648 0.69501269
-0.053466558 -0.077213734 0.68799603
-0.056205451 -0.081934378 0.68778467
0.10204679 0.11427844 0.71507907
0.0072189867 0.0010832399 0.69995105
0.00082546473 -0.00455755 0.695912
-0.0069969296 -0.013982624 0.69533974
-0.0080513954 -0.01587455 0.69564843
-0.014101923 -0.024044231 0.69593203
-0.023720592 -0.036138237 0.69247425
-0.026206374 -0.040655196 0.69065917
-0.051276922 -0.071285367 0.68427169
-0.054506838 -0.073956162 0.68626028
-0.059535682 -0.077455416 0.68382049
-0.059725344 -0.081954807 0.68290591
0.10066819 0.11704618 0.7115624
-0.029521734 -0.03786853 0.68839622
-0.032071829 -0.043690145 0.68535352
-0.055492938 -0.068472102 0.6815356
-0.05848068 -0.073301956 0.68370193
-0.061976671 -0.080059886 0.67818677
-0.032210827 -0.035854876 0.68384349
-0.034834802 -0.039863467 0.68121195
-0.03395015 -0.04396975 0.68145883
-0.052647889 -0.063464135 0.67672133
-0.057393253 -0.064236879 0.67714858
-0.061627984 -0.071670666 0.67931896
-0.063009977 -0.074568897 0.67737633
-0.036642551 -0.032969177 0.67770237
-0.038361311 -0.039788321 0.67601997
-0.065179884 -0.071073323 0.6720866
0.093811035 0.12350982 0.70048487
-0.039169014 -0.034197837 0.67431605
-0.057100236 -0.056971461 0.66824245
-0.060090184 -0.060580954 0.67196167
-0.065427721 -0.065181345 0.67070341
-0.066724837 -0.070029512 0.6680187
0.091294557 0.1262365 0.69637042
0.012606323 0.036182046 0.68023491
0.0042182803 0.024948448 0.67979026
-0.0080776811 0.010306001 0.67660284
-0.015641958 0.0022752285 0.67471272
-0.016108185 -0.0012200773 0.67631245
-0.019293576 -0.0043476522 0.67488158
-0.039237499 -0.028627053 0.671004
-0.040868819 -0.034011394 0.66970003
-0.061402142 -0.057229027 0.66764587
-0.067315578 -0.065246254 0.66720122
-0.068855762 -0.066335917 0.66287953
0.090541899 0.12782818 0.69000393
0.016212136 0.041797221 0.68040442
0.013539314 0.038475871 0.67783469
0.011264741 0.036129773 0.67503458
0.0063771605 0.029477119 0.67692786
0.00435251 0.027590066 0.67575479
-0.00633201 0.015655488 0.67325211
-0.0079152882 0.011468381 0.6730898
-0.010555565 0.009349227 0.67161691
-0.014496565 0.0053684562 0.67009902
-0.016638458 0.0015841126 0.67181742
-0.019593596 -0.0017014444 0.67235529
-0.025953442 -0.0060179383 0.66995847
-0.033411115 -0.014315605 0.66779208
-0.037356317 -0.022850662 0.66929203
-0.041598976 -0.031515703 0.66619647
-0.061800301 -0.054907322 0.66444862
-0.065806091 -0.055189356 0.66257513
-0.06972158 -0.060538501 0.66140985
0.087427378 0.13110256 0.68789232
0.022695631 0.055983573 0.67515314
0.019687563 0.049197018 0.67527211
0.017264813 0.044928819 0.67459756
0.014998287 0.041571677 0.6735912
0.0049650073 0.028272569 0.67192805
-0.00039723516 0.025625736 0.67124319
-0.0032391846 0.021830469 0.67183006
-0.0057456791 0.016801506 0.66959703
-0.0082877576 0.011725128 0.66847908
-0.011379749 0.0090239048 0.66869915
-0.015311927 0.0042876005 0.6683237
-0.019521952 0.00026915967 0.66609514
-0.02284044 -0.0025020391 0.66802877
-0.025450289 -0.004691422 0.66520846
-0.029826641 -0.009215191 0.6652711
-0.032462001 -0.01219067 0.66378701
-0.0352166 -0.016216248 0.66384876
-0.037845194 -0.021019205 0.66469306
-0.040426016 -0.025004953 0.66298199
-0.062646687 -0.050393939 0.65814096
-0.071274519 -0.06335561 0.65684545
0.087191761 0.13433099 0.6870842
0.062861919 0.10904142 0.67873228
0.059000731 0.10310796 0.67990136
0.057606041 0.099848062 0.67704284
0.055281341 0.098762691 0.67846322
0.027750313 0.067884535 0.6734404
0.023810208 0.057931423 0.67135119
-0.02715379 -0.0066585243 0.66232741
-0.033270478 -0.012399644 0.66030991
-0.03659898 -0.016617864 0.66011351
-0.038457453 -0.019966453 0.66030717
-0.068641424 -0.051122665 0.6563046
-0.072129011 -0.055230081 0.65517944
-0.073055267 -0.058839768 0.65330172
0.08538264 0.13836434 0.68016303
0.076474994 0.13195536 0.67873704
0.07166931 0.12277007 0.67662805
0.067899883 0.11748967 0.67797571
0.064119339 0.10894126 0.67559993
0.030298978 0.072054118 0.67004895
0.028037041 0.066371888 0.66923416
-0.066134691 -0.046332985 0.65095305
-0.071102977 -0.048921287 0.65132737
-0.073900163 -0.05271861 0.64985466
-0.074264765 -0.056947082 0.64745247
0.081703067 0.137052 0.67825878
0.07438001 0.12588543 0.67555344
0.049917698 0.099729419 0.67007303
0.039672107 0.091280401 0.66959649
0.037754357 0.087424099 0.66870236
0.033713996 0.079554141 0.66834235
-0.069878936 -0.045600235 0.64748132
-0.072458625 -0.046851844 0.64529788
-0.074234307 -0.051353276 0.64597511
0.046905965 0.098763525 0.66669607
0.044108778 0.096402407 0.6674636
0.12366393 0.092467338 0.7457335
0.1218074 0.090488017 0.74612367
0.11841804 0.084521502 0.74365717
0.056345016 0.011154532 0.73203045
0.12234083 0.09590894 0.74434352
0.11649299 0.088560343 0.74562466
0.11589545 0.083919615 0.74335611
0.11123377 0.07913214 0.74065053
0.10712391 0.075199366 0.73821211
0.089591444 0.056616157 0.73640084
0.087780088 0.05260849 0.73817945
0.08570838 0.048868716 0.7368598
0.078782499 0.041477293 0.7321316
0.059652239 0.016232163 0.73119462
0.053153187 0.01123023 0.7304908
0.050737411 0.0066999495 0.72988224
0.047634184 0.0031619221 0.72817123
0.12081471 0.097370178 0.73984265
0.10103944 0.07427302 0.73712063
0.09785533 0.069716007 0.73378175
0.090842962 0.058697462 0.73392445
0.077007085 0.04420951 0.73377657
0.074132591 0.039844632 0.73097199
0.068909675 0.036570698 0.72871506
0.058487207 0.018431544 0.72781885
0.051520765 0.013729483 0.72666967
0.046865553 0.0088672638 0.72695452
0.043446779 0.0050145388 0.72577417
0.041157365 0.00092028081 0.72466189
0.036746711 -0.00098359585 0.72209823
0.034609824 -0.0071659833 0.7202394
0.11613604 0.098611206 0.73847204
0.11712459 0.096973717 0.73661506
0.090201527 0.065993816 0.73075104
0.064774901 0.031633049 0.72582006
0.062252462 0.031171829 0.72539341
0.057043165 0.02861321 0.72384
0.054932892 0.021117479 0.72182137
0.052210957 0.018513054 0.72133243
0.046930373 0.013585865 0.7200582
0.044234633 0.0093108118 0.72355032
0.037563592 0.0035454929 0.72083843
0.033277124 -0.0025421977 0.71959424
0.028969944 -0.0064080507 0.71657646
0.11420923 0.10016739 0.73250079
0.051731676 0.023075193 0.72147626
0.04689458 0.016625285 0.71911907
0.044724166 0.012707233 0.71862972
0.041346699 0.010839731 0.71726406
0.037915289 0.0086644292 0.71568918
0.034817129 0.0053135306 0.71469438
0.030499637 -0.0015816092 0.71613002
0.027789772 -0.0089927018 0.71528751
0.11391249 0.10209525 0.72655118
0.032827318 0.0071410239 0.71347797
0.027888656 0.0020363033 0.71216327
0.024984926 -0.0022917539 0.71128452
0.022591054 -0.0065886676 0.70964003
0.019469589 -0.010084227 0.70674086
0.016984165 -0.013433456 0.70589918
0.021043718 -0.0014821291 0.70805085
0.012911439 -0.010748327 0.70439923
0.010949939 -0.01484333 0.70377374
0.0074559748 -0.018339992 0.70419133
0.0046804845 -0.021143377 0.70201814
-0.00013384223 -0.029239729 0.69988954
-0.0050385892 -0.032518983 0.69983101
-0.0070564151 -0.037147865 0.69909108
-0.011674672 -0.042335689 0.69769228
0.10987931 0.10858023 0.7183249
0.01478985 -0.0040583313 0.70423234
0.0096852779 -0.012234971 0.70286202
0.0018155575 -0.021373212 0.70055544
-0.0003298223 -0.022617757 0.69977605
-0.0027244687 -0.028285325 0.70005286
-0.0088220537 -0.034147501 0.69888586
-0.012314737 -0.03877911 0.69769228
-0.015864462 -0.044335037 0.69586664
-0.019352287 -0.047104239 0.69368339
-0.048372388 -0.081415594 0.68978947
-0.052038491 -0.084583536 0.68956721
-0.054138482 -0.087259233 0.68736279
0.10612166 0.11176971 0.71633899
-0.022602767 -0.045231313 0.69276327
-0.025139332 -0.049848437 0.68974531
-0.045953512 -0.076820865 0.68614984
-0.056348681 -0.087280273 0.68440616
0.10713631 0.11311996 0.71369338
-0.029662907 -0.048800468 0.68649983
-0.033531547 -0.056128651 0.68216121
-0.04861635 -0.073224753 0.68497705
-0.059447587 -0.085692063 0.67736298
0.10500938 0.11592752 0.70977688
-0.034380078 -0.048410892 0.68020773
-0.033453405 -0.052356914 0.68144846
-0.036544621 -0.055547029 0.67951053
-0.047453284 -0.067527682 0.67929935
-0.0609532 -0.082592785 0.67862201
0.10111332 0.11829606 0.70598745
-0.036978573 -0.04596588 0.67772466
-0.037601978 -0.049125761 0.67767227
-0.038716078 -0.052991003 0.67716002
-0.047709703 -0.063178614 0.67477524
-0.062498748 -0.080597892 0.67224622
0.10109907 0.11935887 0.70111251
-0.041514039 -0.049398303 0.67306048
-0.051875532 -0.058988869 0.67070997
-0.064415455 -0.076660186 0.67048556
0.098782003 0.12089446 0.6956408
-0.041031361 -0.041190714 0.67064714
-0.041455507 -0.044607311 0.6713779
-0.043840647 -0.047883332 0.66754919
-0.065556645 -0.075127006 0.66450965
0.096292585 0.12340173 0.69185174
-0.042109847 -0.038760632 0.66659164
-0.04347533 -0.0422066 0.66585076
-0.053176522 -0.054320335 0.66261709
-0.067505062 -0.071242958 0.66192728
-0.045000136 -0.041513115 0.65998268
-0.05576992 -0.051658332 0.6593011
-0.069421172 -0.067978621 0.6575942
0.091552317 0.128135 0.68395799
0.011550426 0.037067831 0.66891098
0.0068226755 0.030516684 0.66941762
0.0039227307 0.027037799 0.66653478
-0.0073211491 0.012232274 0.66389334
-0.013347507 0.0047314316 0.66356564
-0.039964676 -0.024762362 0.66024864
-0.041980684 -0.029195055 0.65908647
-0.058197796 -0.048882097 0.65434855
-0.07175082 -0.063927233 0.65185136
-0.069498777 -0.068305314 0.6538316
0.090150893 0.13262281 0.68189871
0.020999163 0.051354617 0.66792822
0.018608928 0.047033519 0.66772109
0.014746904 0.041365147 0.66840231
0.00452739 0.027298599 0.66361594
0.00063598156 0.025005251 0.66380572
-0.0019232333 0.020931691 0.66416204
-0.0047081113 0.018087238 0.66548002
-0.010219216 0.0088093281 0.66194117
-0.016064882 0.0022607893 0.66192329
-0.022683114 -0.0016833544 0.66213632
-0.025207937 -0.0040407032 0.65929151
-0.02865234 -0.0077832043 0.65851653
-0.032577544 -0.012897819 0.65783489
-0.035418868 -0.01655519 0.65569651
-0.037915885 -0.019288898 0.65595007
-0.040197372 -0.024219975 0.65465057
-0.073320925 -0.060101062 0.64945602
0.090263069 0.13706374 0.67565298
0.088342667 0.13615945 0.68023664
0.068397313 0.11491671 0.67397606
0.064163148 0.1062113 0.67229611
0.059493333 0.099993467 0.67287135
0.056317508 0.098359644 0.67329115
0.027314782 0.062410235 0.66462004
0.02496016 0.057705909 0.66411006
-0.024054974 -0.0044285357 0.65534782
-0.028951079 -0.0090136081 0.65398932
-0.031284124 -0.010478497 0.65595257
-0.034446031 -0.0156333 0.65271288
-0.062878609 -0.045549959 0.64890695
-0.072957218 -0.060967177 0.64609277
0.086525857 0.13728878 0.67434406
0.080973238 0.13367915 0.67458963
0.080036014 0.13086843 0.67268711
0.051872075 0.099369228 0.66728204
0.036114961 0.080578059 0.66425097
0.034633577 0.076043934 0.6631844
0.03172487 0.072109669 0.66576874
0.030477464 0.068416774 0.663118
0.028074861 0.065443695 0.66264558
0.02492696 0.061358303 0.66170502
-0.062157869 -0.043511838 0.6441074
-0.066500306 -0.043796241 0.64480495
-0.073758125 -0.052179068 0.64079469
-0.074072242 -0.05630216 0.64293373
0.050695688 0.099142998 0.66370857
0.048707038 0.097156763 0.66112828
0.044560254 0.092823118 0.6622442
0.04116568 0.087904602 0.66294694
0.040591896 0.083949298 0.66027284
0.038121045 0.079843044 0.66031426
0.028409779 0.070368171 0.65845859
0.023619831 0.066779524 0.65891433
0.01974389 0.063886732 0.6572386
0.016529083 0.058774233 0.65538275
-0.069252491 -0.044228896 0.64030933
-0.071581602 -0.047092348 0.63938975
0.02384463 0.071623355 0.65509605
0.020728886 0.070171833 0.65408885
0.01737687 0.066517502 0.65371919
0.014910012 0.062288493 0.65217054
0.012700737 0.05687654 0.65088069
0.023724258 0.072879374 0.65124869
0.018673182 0.069595963 0.64959872
0.016389221 0.066685915 0.64926207
0.013588428 0.061745584 0.64807224
0.12660772 0.090367615 0.74430317
0.12342781 0.086001992 0.74419796
0.12181526 0.083870828 0.74369085
0.092106014 0.049131334 0.7362718
0.068000197 0.017065406 0.73202085
0.062483072 0.014275819 0.73286688
0.060407192 0.0090388656 0.73232663
0.052182883 0.0031119883 0.72941136
0.054058224 -5.7131052e-05 0.72813201
0.12682572 0.093728006 0.74113101
0.10891798 0.072542876 0.73659599
0.093966782 0.052984893 0.7350527
0.089271188 0.045907289 0.73490858
0.083216131 0.043611348 0.73358333
0.082655966 0.038655818 0.7300936
0.06463483 0.019907326 0.72908318
0.044447809 -0.0028753281 0.72494388
0.12466979 0.093898743 0.73727405
0.12255323 0.093084216 0.73478472
0.10421157 0.071955115 0.73603868
0.10112154 0.069953918 0.73440254
0.098228753 0.063764691 0.73019695
0.095021546 0.060772061 0.72977817
0.077697396 0.035321772 0.72812903
0.074531019 0.035759002 0.72852898
0.070537776 0.031728148 0.72599816
0.067627966 0.028377473 0.72428155
0.06560269 0.022975951 0.7238071
0.061215699 0.021253109 0.72415948
0.037498623 -0.0086097717 0.72097719
0.035007864 -0.012289643 0.71837789
0.12035215 0.095678121 0.73169231
0.093346417 0.062424213 0.72976255
0.062253058 0.023746163 0.72312552
0.057695955 0.020985752 0.72278547
0.032488197 -0.010696143 0.71806097
0.030346006 -0.013621956 0.71560502
0.027803719 -0.016777143 0.71172899
0.11910605 0.098296165 0.72598314
0.026601166 -0.012721196 0.71298361
0.023708105 -0.015174299 0.70855892
0.022318721 -0.012712359 0.70831978
0.017661273 -0.017123669 0.70470941
0.013237476 -0.023113251 0.70282859
0.0035092533 -0.035814106 0.6994381
0.11420888 0.10447329 0.71995997
0.015143216 -0.019219592 0.70296234
0.010174155 -0.021849066 0.70352364
0.0074681938 -0.02667135 0.70033801
0.0053901076 -0.028845206 0.69994962
0.0019861758 -0.031372249 0.70029914
-0.0019599497 -0.036495909 0.69928813
-0.0048400462 -0.04274404 0.6981324
-0.0084941387 -0.047659382 0.69651771
-0.013817161 -0.051192135 0.69412041
-0.039516211 -0.084941417 0.68852699
-0.043558657 -0.085929006 0.68960845
-0.045727253 -0.090523288 0.68851614
-0.047870934 -0.093022704 0.68630511
0.11353958 0.10568386 0.71904433
-0.018940717 -0.053172141 0.69154459
-0.043086827 -0.08079122 0.68814802
-0.041045129 -0.077026695 0.68390769
-0.04391706 -0.074940443 0.6833328
-0.055642188 -0.090354607 0.68006635
-0.030231118 -0.057039499 0.68357873
-0.034670025 -0.060466796 0.6797967
0.10967624 0.11361453 0.70624924
-0.038482964 -0.060762197 0.6759522
-0.04204309 -0.066703707 0.67510939
-0.059069276 -0.086206153 0.67267597
0.10872945 0.11529109 0.70238256
-0.040912926 -0.060565844 0.67315388
-0.042015076 -0.06364055 0.67320055
-0.060344994 -0.083909154 0.66689354
0.10266626 0.12035564 0.69718343
-0.042915165 -0.056396097 0.67043221
-0.045345545 -0.06020996 0.67045963
-0.063040435 -0.079757631 0.66590625
0.10266042 0.11943781 0.69432044
-0.043715358 -0.052550048 0.66827929
-0.046426833 -0.05461131 0.66413665
-0.047452152 -0.056686997 0.66644406
-0.062675536 -0.079744518 0.66083235
-0.045544744 -0.04917264 0.66263485
-0.047303498 -0.053002611 0.66210425
-0.066205859 -0.073913783 0.65709603
0.097284228 0.12419942 0.6832701
-0.046500921 -0.048093408 0.65816879
-0.048590899 -0.050951689 0.65729904
-0.043053567 -0.036889255 0.65613663
-0.04493767 -0.040019453 0.6546948
-0.049291432 -0.048936471 0.65229666
-0.068807185 -0.069424838 0.65159857
0.091736287 0.12975216 0.67973357
0.0030360222 0.025351107 0.66157305
-0.0030309558 0.017223001 0.65996706
-0.0058160424 0.013330668 0.65920568
-0.0087445378 0.010459125 0.6580627
-0.012600571 0.004380703 0.65601468
-0.015449375 0.0010808855 0.65761828
-0.020492613 -0.0023118556 0.65526569
-0.041633129 -0.030663311 0.65168136
-0.05605495 -0.048080325 0.64974689
-0.070372701 -0.066144168 0.64635801
0.093023539 0.13445252 0.67642194
0.066139072 0.10513991 0.6682936
0.062188983 0.099248946 0.66768909
0.021073222 0.052108586 0.66078591
0.020735204 0.049910486 0.66234678
0.017385751 0.044559091 0.66063643
0.014046758 0.040293247 0.65743637
0.011735767 0.036714405 0.65800643
0.0079583526 0.032029897 0.65925348
0.0070496798 0.030572712 0.65550971
0.0028462112 0.024243623 0.65595037
-0.00042954087 0.021304309 0.65712345
-0.0020058155 0.016945153 0.65602958
-0.0044898391 0.013525486 0.65469617
-0.0076210797 0.010293007 0.65550208
-0.011546493 0.0053115487 0.6544376
-0.019616127 -0.0025694966 0.65229356
-0.023283333 -0.0063483119 0.64958692
-0.027130008 -0.0081308186 0.65104997
-0.029805303 -0.012103558 0.64867079
-0.033052444 -0.015553787 0.65033275
-0.035757035 -0.019992173 0.64981699
-0.038041413 -0.023103684 0.65095568
-0.056186199 -0.044439033 0.6439448
-0.058062971 -0.04580465 0.6473273
-0.071311712 -0.062487647 0.64129698
0.091389149 0.13683897 0.67172134
0.087715179 0.13608807 0.6713165
0.083420604 0.13168985 0.66943812
0.082643211 0.12842175 0.66705215
0.079381704 0.1234464 0.6664027
0.07481578 0.11937225 0.66887194
0.070716858 0.11430395 0.66991341
0.07055521 0.11023584 0.66669405
0.061367452 0.097198308 0.66453624
0.058817118 0.097618639 0.66598332
0.033989251 0.071822405 0.65973282
0.020327419 0.05426541 0.65942967
0.016716331 0.047281116 0.65762556
0.01367715 0.041256368 0.65600586
0.011175811 0.038999736 0.65359354
-0.05892843 -0.042742804 0.63937622
-0.072830439 -0.054662287 0.63868225
0.087590486 0.13336146 0.66679299
0.055120736 0.097778261 0.65839934
0.043918014 0.087842017 0.65867656
0.041687876 0.082056999 0.65722787
0.037156641 0.073420882 0.65679854
0.032775849 0.072238505 0.65648913
0.016775906 0.053026974 0.65251088
0.013299972 0.051287383 0.65354121
0.011768401 0.044840097 0.6531325
-0.064279437 -0.042391151 0.63806129
-0.06972158 -0.048535973 0.63445777
-0.070413828 -0.052338749 0.63416457
0.050994247 0.095420241 0.65605712
0.048836291 0.091483057 0.65529162
0.028023899 0.073590815 0.65212774
0.018090606 0.060655892 0.64956915
0.016142547 0.054637015 0.64859879
0.010593176 0.051329195 0.64720774
0.0099130571 0.046625108 0.64815062
-0.066624284 -0.043323159 0.63431925
-0.068822622 -0.046744496 0.63369828
0.025436223 0.072579592 0.64670908
0.021764994 0.071624905 0.64832616
0.019395202 0.068828851 0.64637685
0.015431076 0.062500149 0.64481258
0.011957079 0.056267798 0.64621556
0.072322786 0.013005674 0.73169446
0.068240851 0.0097947717 0.73245609
0.06297341 0.0039631873 0.73041815
0.13298631 0.08852756 0.74095023
0.12880579 0.084413439 0.74251807
0.12472209 0.080084145 0.74121988
0.095320731 0.049576342 0.73493719
0.071497619 0.019107282 0.72913194
0.072660148 0.017307192 0.73005307
0.058261812 -0.0017292649 0.72692633
0.051964074 -0.003505528 0.72618937
0.1297752 0.09156847 0.7375052
0.11449802 0.074149013 0.73762459
0.11351871 0.069924593 0.73490053
0.10715115 0.067127168 0.73297656
0.099072516 0.05079937 0.73181665
0.091826707 0.041687876 0.7313664
0.085330188 0.037575543 0.72902435
0.068308026 0.021380097 0.72690433
0.046099484 -0.0083779395 0.72264373
0.038645506 -0.020934999 0.71779293
0.035709262 -0.024825901 0.71906555
0.032369345 -0.027354926 0.71592528
0.12622088 0.092066169 0.73450708
0.10151917 0.06221801 0.72947931
0.097716451 0.058205038 0.72868669
0.077278435 0.029220462 0.72390807
0.073736548 0.027142435 0.72311133
0.069097817 0.024210036 0.72294927
0.039454192 -0.01637131 0.716923
0.035542816 -0.018409654 0.71521336
0.031978428 -0.02058439 0.71290982
0.030401587 -0.021176428 0.71080863
0.024718851 -0.019460902 0.70690942
0.11928824 0.099185109 0.72252017
0.019473195 -0.022173956 0.70204258
0.01297915 -0.029224768 0.70029402
0.010467052 -0.031430885 0.69881105
0.0087629259 -0.036584288 0.69833547
0.0033505857 -0.040707916 0.69808185
-0.00097230077 -0.046164989 0.6973114
-0.001634717 -0.048640653 0.69663483
-0.037904054 -0.091690078 0.68946981
-0.040731072 -0.093506813 0.68959308
-0.04209286 -0.096956104 0.68856239
0.11770889 0.10289827 0.71819639
-0.0058940053 -0.048988402 0.69616872
-0.0074009895 -0.052426249 0.69435501
-0.01203227 -0.054121107 0.69318867
-0.036918163 -0.084255457 0.68625844
-0.043843746 -0.097891048 0.68661028
0.11628291 0.10615784 0.71462697
-0.016391903 -0.058044314 0.68958694
-0.020455539 -0.059784979 0.68668383
-0.021768957 -0.062954471 0.68354481
-0.049335599 -0.094198197 0.68405086
-0.049180806 -0.096250966 0.68004256
0.11397591 0.10897884 0.710989
-0.025475442 -0.060676202 0.68394673
-0.02719304 -0.06268388 0.68286169
-0.051317394 -0.094716936 0.67610335
0.11394048 0.11029515 0.70661426
-0.032371193 -0.065538049 0.67860848
-0.034933746 -0.068397939 0.67558861
-0.037699133 -0.072758108 0.6771462
-0.055507481 -0.090619236 0.67541075
-0.037654757 -0.064513117 0.67553699
-0.038419247 -0.067857847 0.67432338
-0.055660725 -0.090164512 0.67075866
0.11089095 0.11449969 0.69836062
-0.057852268 -0.087267667 0.66816574
0.10755223 0.11782092 0.69467592
-0.058375061 -0.085496023 0.66155946
0.10511255 0.11907578 0.69047475
0.10080636 0.12077692 0.68884683
-0.063043177 -0.078362644 0.65537637
-0.064375579 -0.075493038 0.65070635
0.098461539 0.12463236 0.67690498
-0.046535194 -0.046753556 0.64939141
-0.04875499 -0.049769759 0.65194178
-0.066973746 -0.070739448 0.64557612
0.094747514 0.12797931 0.67573559
-0.041363835 -0.034888655 0.64811695
-0.042874455 -0.039235219 0.64754629
-0.044966936 -0.045381427 0.64590979
-0.049042702 -0.04757455 0.64667785
0.096003443 0.13311386 0.67130661
-3.349781e-05 0.01958397 0.65185839
-0.0019063354 0.015056461 0.65098333
-0.0041445792 0.012090415 0.65073097
-0.00690341 0.010000229 0.65113854
-0.0097566843 0.004443571 0.65100074
-0.013193667 0.0010676384 0.64975387
-0.020157278 -0.0040061474 0.64831293
-0.034534723 -0.02153039 0.64568341
-0.036841452 -0.02709499 0.64470172
-0.038941562 -0.028895885 0.64754802
-0.051370442 -0.045808494 0.64368075
-0.06726706 -0.068221971 0.63982576
0.093620151 0.13591507 0.6688773
0.092904866 0.13539192 0.66669607
0.074778259 0.1149258 0.66522062
0.074413687 0.11058849 0.66243517
0.070412546 0.10453218 0.66303325
0.068123281 0.10323223 0.6644721
0.064361781 0.097131252 0.66274333
0.0088382363 0.034741461 0.6520611
0.0061458945 0.029600948 0.65094632
0.0033065975 0.024076045 0.65004814
-0.022061467 -0.0060420334 0.64669716
-0.024970978 -0.010640398 0.64396155
-0.027632833 -0.011191785 0.6470663
-0.030371159 -0.016761974 0.64389431
-0.032708973 -0.021661997 0.64252549
-0.054720104 -0.04393971 0.63957691
-0.070928991 -0.060481742 0.63665998
0.089732409 0.13451964 0.66625381
0.085940182 0.13001341 0.66481197
0.079194248 0.11643615 0.66136187
0.061150491 0.096349537 0.65854216
0.045930564 0.085416704 0.6543234
0.045730978 0.081337422 0.65212768
0.041644156 0.076511741 0.65351212
0.038055629 0.07371071 0.65433872
0.01606968 0.047955096 0.65034497
0.00900653 0.038884282 0.65011239
0.0073031783 0.036445826 0.64578891
0.0061270893 0.031030148 0.64732397
0.0050481558 0.028015584 0.64681536
-0.05607754 -0.042890176 0.63278842
-0.0580948 -0.04226613 0.63512909
-0.070135713 -0.057470173 0.63335264
0.057354867 0.09616223 0.65330213
0.054449439 0.095067263 0.6526854
0.049667984 0.086985588 0.6514681
0.033913493 0.073997378 0.64825583
0.01014334 0.044564575 0.64177597
0.008710295 0.042066038 0.64418256
-0.060861349 -0.041789114 0.63042212
-0.069275796 -0.051479623 0.63163435
0.030261487 0.073768973 0.64693564
0.030599922 0.073042125 0.6432206
0.015170962 0.057116508 0.64060318
0.012383908 0.051093191 0.6411463
-0.065375924 -0.044700041 0.62665164
0.027007669 0.070895106 0.64108121
0.023528516 0.069075197 0.64153171
0.019529819 0.063661665 0.64048386
0.018032908 0.059381813 0.63907385
0.13512459 0.082455307 0.73957789
0.13372439 0.080209076 0.73963594
0.076306581 0.011622608 0.72904867
0.072521448 0.0074298829 0.73018277
0.068141907 0.0045394897 0.73012131
0.068444937 -0.00043126941 0.72704685
0.13570267 0.087662935 0.73919374
0.12750137 0.078833401 0.73979926
0.12542945 0.073957145 0.73702776
0.12014443 0.073096037 0.73680007
0.11939117 0.068668604 0.73383754
0.10095131 0.048054576 0.73127806
0.099241912 0.043861777 0.73147833
0.075431734 0.016092956 0.72883379
0.060972661 -0.0055400729 0.72376335
0.051691413 -0.011485592 0.72115111
0.041717201 -0.025074914 0.72032094
0.040179163 -0.029284924 0.72016919
0.036847711 -0.031622201 0.71685004
0.13312417 0.088691473 0.73429078
0.11200798 0.065601796 0.7318846
0.11124104 0.062429339 0.72952229
0.08969146 0.035690337 0.72673315
0.085420132 0.031957388 0.72448194
0.081441283 0.029118627 0.72304487
0.074585795 0.021036506 0.72405171
0.047770709 -0.012587994 0.72024679
0.047469676 -0.016565889 0.71749556
0.042388201 -0.018658563 0.71580017
0.041078597 -0.019711658 0.71589708
0.035335749 -0.028076321 0.71895742
0.034166127 -0.030976087 0.71517515
0.12922353 0.089035928 0.73167038
0.10565257 0.061453164 0.7289567
0.10258061 0.055550277 0.72674936
0.077214926 0.02419433 0.72104388
0.031373113 -0.0299557 0.71063924
0.029319912 -0.026177302 0.70738292
0.12538642 0.093984723 0.72366136
0.026904553 -0.023081899 0.70519078
0.027034849 -0.025719196 0.70236361
0.12370849 0.096601129 0.71903729
0.020395756 -0.024132133 0.70000738
0.016450971 -0.029269814 0.69935429
0.013698757 -0.03552267 0.69818485
0.0068643987 -0.043768778 0.69748908
0.0043341219 -0.04838185 0.69643629
0.001989305 -0.052274838 0.69481224
-0.0043515563 -0.05467926 0.69328392
-0.0050120056 -0.058803007 0.6910249
-0.034001172 -0.0929804 0.68755937
-0.036691606 -0.097330049 0.68904877
-0.038955331 -0.10056968 0.68738067
0.12250602 0.1004326 0.71541655
-0.0093347728 -0.057597339 0.69126153
-0.012384325 -0.061289132 0.68785948
-0.031889081 -0.087535888 0.68376261
-0.043991029 -0.099732906 0.68367481
-0.043249249 -0.10104617 0.68097937
0.12211126 0.10289949 0.71016443
-0.016487092 -0.06437692 0.6840148
-0.019884288 -0.066343024 0.68151212
-0.031918585 -0.081286818 0.67948574
-0.04628408 -0.099020958 0.67675638
0.11830777 0.10616964 0.70901382
-0.023767501 -0.067753077 0.67991626
-0.034247071 -0.076974899 0.67900532
-0.046928763 -0.098554268 0.67415041
0.11870813 0.10675988 0.70479816
-0.032767534 -0.072306901 0.67471164
-0.051779866 -0.094334841 0.67338598
0.11459166 0.11136234 0.69976133
-0.052283645 -0.092818588 0.66427308
0.11452141 0.11224306 0.69557023
0.1115815 0.11550745 0.69216102
0.10981715 0.11795157 0.68805015
0.10686231 0.11725453 0.6861819
-0.056692719 -0.08615537 0.65581316
-0.060100317 -0.081547156 0.65308869
0.10239643 0.12125164 0.68101722
0.1020326 0.12250507 0.6760608
-0.064252257 -0.07346721 0.64291054
0.10042977 0.12450698 0.67164761
-0.043475389 -0.045458883 0.64283741
-0.045849085 -0.047270358 0.64176667
-0.063672423 -0.072390497 0.63825572
0.098767251 0.12733316 0.66836095
-0.0074352622 0.0043922663 0.64655101
-0.036599547 -0.031560153 0.64159536
-0.03860867 -0.036641359 0.64223897
-0.048861384 -0.046619132 0.64227152
-0.066931546 -0.067137524 0.63643134
0.098076731 0.13352862 0.66521275
0.078513175 0.11065114 0.65831447
0.074382275 0.10268104 0.65824342
0.069496036 0.098958164 0.66018379
0.066424668 0.095242202 0.6581856
0.0036455393 0.023563117 0.64593643
0.0028757751 0.020053715 0.64508498
0.00049731135 0.01667586 0.64689898
-0.0010299683 0.011400163 0.64580166
-0.0080732703 0.0025335699 0.64525038
-0.011578292 -0.0014811307 0.64399529
-0.016157657 -0.0039883703 0.64371961
-0.021783203 -0.0099138021 0.64103353
-0.027015507 -0.015808776 0.6395607
-0.02992788 -0.020326316 0.63884795
-0.032540798 -0.027426079 0.63786948
-0.034305751 -0.030135259 0.63871109
-0.051437497 -0.045201629 0.63591075
-0.067556858 -0.063664764 0.63230371
0.09409073 0.1322563 0.65923178
0.090430975 0.12868214 0.65889776
0.087033272 0.12393242 0.65812558
0.083932042 0.12058094 0.65919095
0.063551456 0.094777524 0.65321827
0.045268536 0.075562179 0.64959401
0.042845011 0.073762119 0.65042484
0.0059777498 0.031231821 0.6434629
0.0056941509 0.028058231 0.64202505
-0.053919792 -0.044022277 0.63172692
-0.067399025 -0.059152827 0.62772453
0.058294624 0.094123513 0.64939034
0.053087622 0.089592427 0.64981174
0.049734652 0.080255419 0.64843225
0.044993788 0.074445158 0.64732778
0.040678084 0.073485196 0.6468482
0.0085019767 0.035275251 0.64038742
-0.056335449 -0.042869478 0.62733555
-0.067480981 -0.054902613 0.62615228
0.03998071 0.073728412 0.64297462
0.034580648 0.073597491 0.64279395
0.016739607 0.050010324 0.63655412
0.013400018 0.044086367 0.63751507
0.011428684 0.040917456 0.63850355
-0.060711145 -0.043112665 0.62268394
-0.063161492 -0.045813844 0.62133336
-0.065847635 -0.050079614 0.62305653
-0.065480947 -0.053781241 0.62199783
0.033505261 0.071312159 0.63735247
0.027653843 0.067396462 0.63597322
0.023780853 0.063765049 0.63749838
0.022262573 0.057974339 0.63609225
0.019051254 0.055954009 0.63690186
0.13767061 0.08019951 0.73834908
0.13521272 0.075682551 0.73648632
0.080809146 0.0089463294 0.72522211
0.077587426 0.005489409 0.72612554
0.070954859 0.0013511181 0.72764909
0.07222417 -0.001306504 0.72520155
0.13824442 0.086699009 0.73697686
0.13859528 0.084761441 0.73826134
0.13051909 0.075432301 0.7372483
0.12465346 0.070333213 0.73471922
0.12005416 0.065808147 0.7317071
0.081081122 0.015863329 0.72451401
0.064412385 -0.0074752867 0.72060353
0.056604087 -0.011798143 0.72022349
0.053986937 -0.014797658 0.718427
0.05326879 -0.01881595 0.71832812
0.048283637 -0.023102283 0.71660113
0.045298845 -0.026718214 0.71861851
0.042690367 -0.030453131 0.71769172
0.039010406 -0.03266786 0.71575451
0.13974124 0.086003572 0.73287976
0.13403788 0.086932987 0.73203027
0.11630005 0.062414765 0.72916299
0.11031711 0.058258086 0.7261759
0.1062097 0.050682992 0.72430146
0.10510755 0.048336148 0.72686017
0.094107836 0.036699802 0.72675097
0.089947701 0.030913264 0.72238755
0.084765941 0.025938272 0.71960354
0.080666125 0.020790547 0.7203722
0.04842931 -0.018264115 0.71747422
0.047040313 -0.02326031 0.7151792
0.046989501 -0.025131792 0.71455109
0.041164249 -0.030272678 0.71134961
0.037825286 -0.032729447 0.71252406
0.13453022 0.085647225 0.72747636
0.10752583 0.055532455 0.7244302
0.10763437 0.052704811 0.72299063
0.036236256 -0.033663943 0.70876575
0.033230364 -0.032822013 0.70730925
0.12941146 0.090215325 0.72568697
0.031270981 -0.031623781 0.70392954
0.029193699 -0.029744714 0.70041835
0.015067607 -0.043411791 0.69585001
0.0096590221 -0.051365465 0.69530046
0.0068076253 -0.055430815 0.69367206
-0.032157779 -0.10169384 0.68634361
-0.035449475 -0.10393178 0.68551779
0.025153309 -0.027832136 0.69714451
0.022839665 -0.030359298 0.69602692
0.020382583 -0.037467554 0.69471711
0.012294888 -0.042954803 0.69674468
0.00053834915 -0.057472944 0.69241244
-0.0036096871 -0.060523897 0.68970537
-0.031264693 -0.093735322 0.68545443
-0.037664652 -0.10388188 0.68330419
0.1252307 0.098335862 0.71185875
-0.0082675815 -0.062957644 0.6872983
-0.011173069 -0.066686302 0.68297327
-0.028936446 -0.091385961 0.68233538
-0.039389253 -0.10353473 0.68034744
-0.041487098 -0.10240924 0.679371
-0.028421879 -0.082862303 0.67765212
-0.043192983 -0.10132356 0.67635918
0.12290335 0.10355133 0.70333707
-0.025174916 -0.072916314 0.67488444
-0.028161824 -0.075662464 0.6733377
-0.045967519 -0.099113256 0.67031884
-0.048385441 -0.096886843 0.66610718
0.11891329 0.10828039 0.69595969
-0.049086213 -0.095976293 0.66341531
-0.053438008 -0.090549216 0.65918612
-0.052111268 -0.090897053 0.65516084
0.11275429 0.11602858 0.686427
0.11137524 0.11479083 0.68251902
-0.055362821 -0.086472973 0.65148377
0.10676351 0.11848432 0.68038809
-0.057373166 -0.08268635 0.64623356
0.10771102 0.11875635 0.67564654
-0.060465574 -0.078699276 0.64458871
-0.059611917 -0.078292847 0.64093184
0.10137635 0.12561774 0.66566432
-0.036228925 -0.037007391 0.63894385
-0.038620055 -0.039406955 0.63982213
-0.040442407 -0.047653913 0.63764787
-0.044607103 -0.048206657 0.63690662
-0.063526452 -0.069025755 0.63158721
-0.061820865 -0.072253764 0.63333279
0.10089028 0.13234612 0.66163939
0.073229581 0.09608236 0.65524602
0.071893126 0.09375295 0.65403235
0.0012994707 0.00944978 0.64231735
-0.0018087029 0.0042918026 0.64209402
-0.0049188137 0.00022387505 0.64053112
-0.0092307925 -0.00027139485 0.64269972
-0.014241427 -0.0058602393 0.63901389
-0.019096732 -0.0097085834 0.63778502
-0.024716258 -0.015998617 0.6371609
-0.02698046 -0.020306066 0.63573754
-0.029783785 -0.024425298 0.63588655
-0.047460318 -0.047156364 0.63329142
-0.063993931 -0.066406369 0.6289143
0.099170595 0.13325804 0.65794832
0.096412987 0.13123357 0.65604544
0.082947373 0.11301884 0.65533113
0.080030024 0.10743403 0.65539664
0.069429964 0.092838973 0.65193629
0.0077136159 0.024281055 0.63796198
0.0050329864 0.018280119 0.64051604
-0.01580599 -0.0095745474 0.63524663
-0.019133121 -0.013432503 0.63384718
-0.022278309 -0.014482677 0.63528979
-0.024444491 -0.01790446 0.63386047
-0.026479095 -0.022534057 0.63250256
-0.064062119 -0.062850386 0.62529206
0.06296441 0.092943102 0.6476928
0.059162557 0.090939552 0.64591706
0.055431396 0.08855328 0.64671302
0.052732319 0.084383875 0.64781153
0.050445288 0.082184821 0.64600611
0.047012597 0.076777756 0.64654708
0.043706059 0.075184137 0.64291215
0.013413936 0.034098029 0.63480502
0.010051578 0.031254262 0.63673705
0.0096460581 0.025830775 0.63608152
-0.051491737 -0.044799834 0.6255703
-0.053471208 -0.044039235 0.62274593
-0.06473279 -0.057946622 0.62256503
0.054189861 0.088297784 0.64244735
0.051355898 0.085429102 0.64006662
